ply
format ascii 1.0
element vertex 703
property float x
property float y
property float z
property uchar red
property uchar green
property uchar blue
end_header
10.949095726013184 -5.053585529327393 -1.2223293781280518 169 163 157
-1.947109580039978 1.631299376487732 7.454676628112793 34 33 43
10.49019718170166 -0.8165866136550903 -0.4924037456512451 83 78 138
0.8491674661636353 -0.4080778658390045 4.8314056396484375 89 64 80
10.520705223083496 -0.6629261374473572 -0.540869951248169 188 204 255
10.291934967041016 -1.953882098197937 -0.48140716552734375 177 194 239
10.864643096923828 -4.611512660980225 -1.235273003578186 168 164 164
-1.1912897825241089 0.1128334030508995 6.677233695983887 68 37 48
-0.12264735251665115 0.40176820755004883 5.547597408294678 86 38 54
0.13646359741687775 0.3105614483356476 5.145824432373047 130 94 111
-1.3701175451278687 1.0966440439224243 4.8773980140686035 77 44 65
-1.7955949306488037 0.6368756890296936 7.489828586578369 60 59 77
-1.0113476514816284 -0.3298981487751007 6.504392623901367 63 34 37
10.949095726013184 -5.053585529327393 -1.2223293781280518 169 163 157
-0.7551094889640808 0.17499245703220367 5.917923927307129 166 157 152
-0.9697357416152954 0.6599254012107849 6.087270736694336 65 30 31
-1.3960316181182861 -0.6801083087921143 7.191739559173584 114 105 128
-1.3728405237197876 -0.16934943199157715 7.1332292556762695 61 46 70
9.975584030151367 -2.012131452560425 0.05219372361898422 157 169 212
0.6530517339706421 -1.8708255290985107 5.147806644439697 105 77 103
-1.8056498765945435 -0.38236021995544434 7.57231330871582 89 62 86
0.8878735899925232 0.27066048979759216 4.745358467102051 85 72 91
-0.962446391582489 -0.8265208005905151 6.135030269622803 52 30 37
-0.6637210249900818 0.05270728841423988 5.898031711578369 88 45 45
-0.072365902364254 0.09394824504852295 5.494440078735352 140 86 102
-1.399241328239441 -0.7419378161430359 7.199796199798584 117 99 115
0.7194095253944397 -1.7088689804077148 5.069054126739502 102 83 112
-1.6941022872924805 -0.3413674831390381 7.4659600257873535 130 109 125
0.7847280502319336 0.28680554032325745 4.843929290771484 96 71 92
-2.0785105228424072 -0.09170011430978775 7.841987609863281 119 102 124
-1.0850428342819214 0.04657295346260071 6.568192958831787 75 33 41
-0.4261050224304199 0.3419581949710846 5.689601898193359 79 31 44
10.334553718566895 -5.958674430847168 0.09782563894987106 196 212 250
0.8959205150604248 -1.726162314414978 4.879418849945068 86 66 95
0.12243001163005829 0.33840107917785645 5.11260461807251 74 48 63
1.0259126424789429 -2.06752610206604 4.783769130706787 98 75 106
-1.6320953369140625 1.5507904291152954 6.477567672729492 98 100 127
0.11933132261037827 0.43467211723327637 5.113118648529053 154 111 131
10.690512657165527 0.024595635011792183 -1.195297360420227 70 72 104
-1.279779314994812 -0.8953434824943542 7.062547206878662 87 61 88
-0.42745378613471985 0.2009570449590683 5.703555583953857 59 27 40
9.20699405670166 -1.202636957168579 1.6094800233840942 177 190 232
10.408014297485352 -2.2039530277252197 -0.6454599499702454 141 150 193
-0.9034971594810486 0.5794954895973206 6.089261054992676 71 27 34
-0.8466565608978271 0.34235942363739014 5.931419372558594 85 60 46
10.735072135925293 -3.26822829246521 -0.9149363040924072 188 198 239
-0.24327264726161957 0.6379452347755432 5.221615314483643 77 49 64
-0.39421191811561584 0.3037329614162445 5.663302421569824 98 43 57
-0.7225861549377441 -0.2605418562889099 6.017889499664307 145 132 118
1.061119794845581 0.41472184658050537 4.548374176025391 67 46 65
-1.2105135917663574 0.24972319602966309 6.69098424911499 65 25 35
-0.7016621828079224 -0.30607593059539795 5.9816999435424805 141 128 118
1.0259126424789429 -2.06752610206604 4.783769130706787 98 75 106
0.9363029599189758 -0.767741322517395 4.767764568328857 85 63 87
0.9293776154518127 0.1289099156856537 4.693936824798584 121 102 119
-1.3415871858596802 0.7790331244468689 6.354672908782959 141 93 114
10.605672836303711 -2.0220208168029785 -0.8847780227661133 89 92 126
1.0073740482330322 0.16445913910865784 4.611310958862305 108 81 104
0.1130274087190628 0.3530988097190857 5.119559288024902 139 94 112
1.061119794845581 0.41472184658050537 4.548374176025391 67 46 65
-1.1092054843902588 0.18354490399360657 6.56039571762085 137 81 92
10.491207122802734 -4.699721813201904 -0.12489540129899979 36 33 56
-0.6927273869514465 -1.169329047203064 5.772777080535889 52 26 32
-0.4038223922252655 -1.2134243249893188 5.612654685974121 50 28 40
-1.238391399383545 0.7311286330223083 6.2552103996276855 77 48 64
-1.8967725038528442 1.0895804166793823 5.413702964782715 82 38 55
10.595306396484375 -2.1075937747955322 -0.889972448348999 82 84 120
-1.8090763092041016 0.07990964502096176 7.5257649421691895 118 100 122
0.5899227857589722 -1.8556877374649048 5.2188496589660645 98 76 105
0.8829598426818848 -1.2060800790786743 4.859674453735352 88 69 97
1.1430975198745728 0.7496640682220459 4.427294731140137 107 79 96
-1.526086688041687 -0.5656324028968811 7.309445858001709 124 103 122
-0.47070619463920593 0.0056111472658813 5.7614569664001465 95 49 68
-0.42929038405418396 0.12896504998207092 5.708739280700684 62 25 33
-1.5402520895004272 0.5730301737785339 6.845943927764893 76 37 42
-1.1221365928649902 0.0015377688687294722 6.614202499389648 51 24 32
-0.9364771246910095 0.14558856189250946 6.223483085632324 130 78 91
-0.072365902364254 0.09394824504852295 5.494440078735352 140 86 102
-1.5098282098770142 -0.8173473477363586 7.305110454559326 124 108 121
0.8906104564666748 -1.530743956565857 4.86673641204834 143 128 156
-1.2000999450683594 -0.22357302904129028 6.664176940917969 102 60 69
-1.921742558479309 0.7348319888114929 7.605562686920166 25 32 59
0.7192623615264893 -1.0798906087875366 5.018827438354492 87 63 88
-1.0372250080108643 -1.1268913745880127 6.838444709777832 112 99 126
-0.8189297318458557 0.2964105010032654 5.8425188064575195 33 19 18
-0.46981900930404663 0.2264658510684967 5.742887020111084 105 52 65
-1.6393858194351196 0.4849974513053894 7.343315124511719 118 97 116
0.14792855083942413 0.3984432816505432 5.17694091796875 82 35 41
0.5606498718261719 -1.7084636688232422 5.234969139099121 89 65 89
-0.8152744174003601 0.23814980685710907 5.88403844833374 105 95 94
-0.7424823045730591 -0.08418060094118118 6.055690288543701 186 180 152
0.1404767781496048 0.4250969886779785 5.095287799835205 149 100 119
-1.7369015216827393 1.2150354385375977 6.701385974884033 44 33 37
-0.9227387309074402 -0.09604184329509735 6.210962295532227 61 29 37
-0.892719566822052 0.4243490695953369 6.094963550567627 140 92 104
-0.22755905985832214 -0.48466238379478455 5.43485164642334 133 114 136
-1.470723032951355 0.7570172548294067 6.494088649749756 62 49 53
0.6967514157295227 -1.3964390754699707 5.064847946166992 105 79 104
-1.4098739624023438 -0.7312018275260925 7.203731536865234 78 52 74
-1.1921589374542236 -0.22281086444854736 6.655170917510986 55 18 27
10.699973106384277 -1.966141939163208 -0.7976780533790588 171 183 229
-1.7109721899032593 -0.31248992681503296 7.476781368255615 72 48 59
-0.9085115194320679 -0.05008215457201004 6.226001262664795 49 25 35
-1.5629287958145142 -0.7010565400123596 7.359496116638184 70 56 74
10.884166717529297 -4.951603889465332 -1.1681504249572754 111 98 112
-1.4473252296447754 -0.5916677117347717 7.231668949127197 66 51 66
10.35164737701416 -3.1484744548797607 -0.08828994631767273 202 213 253
-1.6506098508834839 0.13112159073352814 7.379293918609619 110 96 115
-1.9988738298416138 -0.6123522520065308 7.798671245574951 38 34 42
-0.8477088212966919 0.33522093296051025 5.919473171234131 152 144 120
-0.7830178737640381 0.6945337653160095 5.773960590362549 75 47 63
-1.6871252059936523 0.4676785469055176 7.4501118659973145 48 38 42
10.440610885620117 -4.632910251617432 -0.17256572842597961 192 205 246
-2.031872034072876 -0.6023808717727661 7.823700904846191 62 45 64
0.4373270869255066 -1.2200348377227783 5.321549892425537 92 70 93
-0.100979283452034 0.2290508896112442 5.510382175445557 66 23 25
10.240238189697266 -5.429437160491943 -0.037455204874277115 199 215 254
11.038698196411133 -3.3365707397460938 -1.3998997211456299 188 183 205
-1.2625067234039307 -0.345041424036026 6.615029811859131 136 85 99
-1.2700109481811523 -0.6004657745361328 6.636534214019775 100 65 80
-0.844282329082489 -0.356289803981781 6.165558338165283 56 20 24
-1.7160428762435913 1.1897811889648438 5.219522953033447 82 42 62
-2.0676329135894775 0.5133821368217468 7.794666290283203 44 39 58
-1.2870944738388062 0.5111347436904907 6.749256610870361 49 24 32
-1.8587262630462646 0.9889369606971741 6.787260055541992 63 29 28
-1.521264672279358 -0.5076982975006104 7.2981038093566895 61 51 62
-0.5548614263534546 -0.8113917112350464 5.737838268280029 61 31 39
-1.6558657884597778 0.7184078097343445 7.344533920288086 37 29 36
0.08005855977535248 -0.0907425731420517 5.044223785400391 70 29 34
10.068731307983398 -2.8816654682159424 0.13223175704479218 190 205 248
-0.36943066120147705 0.6473481059074402 5.383447170257568 79 62 72
-1.602571725845337 0.947967529296875 6.61259126663208 85 64 67
-0.782243549823761 -0.12346956878900528 6.092160701751709 162 153 136
-1.2000999450683594 -0.22357302904129028 6.664176940917969 102 60 69
-1.1375292539596558 -0.01850322261452675 6.617788314819336 112 64 68
-0.9085115194320679 -0.05008215457201004 6.226001262664795 49 25 35
-1.9139071702957153 -0.5487247705459595 7.694754123687744 72 60 83
-2.031872034072876 -0.6023808717727661 7.823700904846191 62 45 64
-0.5631116628646851 0.455037921667099 5.79355525970459 55 23 28
0.6496462225914001 -0.9407948851585388 5.076014995574951 136 125 146
-1.0884099006652832 0.6381992697715759 6.247403144836426 157 101 117
8.965719223022461 -2.5684103965759277 1.837571620941162 149 157 203
-1.0416276454925537 -0.9993219971656799 6.264747142791748 116 76 94
-1.099023461341858 -0.8091628551483154 6.284644603729248 134 89 108
-1.4615663290023804 0.8530920743942261 6.480081558227539 50 30 37
-0.7252678871154785 -0.6614114046096802 6.046746253967285 69 32 36
-1.8191237449645996 1.043153166770935 7.478365421295166 110 93 111
-0.9714163541793823 0.3676714301109314 6.263286113739014 81 36 47
-1.8700045347213745 1.4967585802078247 7.4889020919799805 116 104 117
-1.9988738298416138 -0.6123522520065308 7.798671245574951 38 34 42
-1.313880205154419 -0.2956354022026062 6.683603763580322 137 89 106
-0.977571964263916 0.05596128851175308 6.2903218269348145 73 31 44
-0.8366956114768982 0.27638769149780273 5.908761501312256 167 160 146
-0.779767632484436 0.38595524430274963 5.932629108428955 104 86 71
-0.7176861763000488 0.4121471345424652 5.898138999938965 68 32 32
0.9355785250663757 0.23051218688488007 4.676059246063232 155 135 153
-1.0455083847045898 0.6823151707649231 6.329796314239502 42 26 31
-0.17568765580654144 0.16048330068588257 5.4905476570129395 92 43 57
-1.0080212354660034 -0.7165332436561584 6.21540641784668 68 32 37
-0.7995589375495911 -0.4301365911960602 6.135629177093506 121 77 92
-0.9796958565711975 -0.7678599953651428 6.155848026275635 106 77 91
-1.8650232553482056 0.04006999731063843 7.600088119506836 104 87 108
-0.3058681786060333 -1.1631141901016235 5.6074652671813965 60 32 47
-0.44115129113197327 0.6576846837997437 5.439927101135254 138 99 119
-1.0784343481063843 0.6302236914634705 6.273407936096191 101 46 55
-0.9842351675033569 -0.767124354839325 6.17894172668457 54 23 28
0.8684608936309814 -0.42455461621284485 4.834928512573242 101 73 87
-0.027026480063796043 0.6166465878486633 5.011475086212158 55 33 43
0.8381308317184448 -1.8926957845687866 4.9760541915893555 102 78 104
-1.6668791770935059 1.0749061107635498 7.32145881652832 54 38 54
-0.5548614263534546 -0.8113917112350464 5.737838268280029 61 31 39
-1.2962963581085205 -0.19775737822055817 7.040050029754639 70 54 68
-1.7051112651824951 1.3159782886505127 6.675835609436035 40 24 28
-0.04680665209889412 0.22850549221038818 5.4670939445495605 139 86 103
-0.6373174786567688 0.774539053440094 5.634211540222168 82 50 67
-0.844214141368866 0.3188260793685913 5.950777053833008 72 62 62
-0.7176861763000488 0.4121471345424652 5.898138999938965 68 32 32
0.8864004015922546 -0.28721362352371216 4.781486988067627 88 65 86
0.8795078992843628 0.25705981254577637 4.735019207000732 138 118 135
10.993607521057129 -4.767484664916992 -1.3401474952697754 69 56 76
-1.1973572969436646 0.3395875096321106 6.66855001449585 55 24 29
-1.1361433267593384 -0.9135773777961731 6.929910659790039 71 45 66
-0.7028680443763733 0.7023611068725586 5.724895000457764 72 38 50
-1.3771356344223022 -0.0395168662071228 7.115933895111084 55 34 42
-0.3829657733440399 0.44580283761024475 5.643770217895508 81 34 46
-1.4546765089035034 -0.9187875390052795 7.2657976150512695 79 55 68
-1.313880205154419 -0.2956354022026062 6.683603763580322 137 89 106
-1.4612222909927368 -0.8832626342773438 7.283516883850098 72 47 68
-1.7041391134262085 1.1311873197555542 5.21373176574707 84 56 78
10.462858200073242 -2.26436710357666 -1.2655394077301025 72 53 51
-0.7734594345092773 -0.04703119769692421 6.071693420410156 155 139 118
-0.9373787641525269 0.4571373760700226 6.196717739105225 137 87 99
-0.1383838653564453 0.5836942195892334 5.121786594390869 116 77 103
-1.8088098764419556 -0.4319273829460144 7.588685989379883 125 105 128
-1.8755934238433838 0.825240433216095 7.567319393157959 44 37 50
-0.5746294856071472 -0.39916330575942993 5.890453338623047 111 75 88
-1.6170741319656372 0.8092250823974609 7.296462059020996 39 29 36
-1.8056498765945435 -0.38236021995544434 7.57231330871582 89 62 86
-1.361562728881836 -0.45432907342910767 7.142251491546631 76 61 78
-0.12756700813770294 0.07094339281320572 5.554375171661377 91 45 63
-0.16149453818798065 0.14044736325740814 5.487875938415527 106 52 70
-0.9055575132369995 0.5638484358787537 6.074032783508301 152 101 117
-0.7319140434265137 -0.26049327850341797 6.034993648529053 157 144 128
-1.779361367225647 0.96937096118927 6.793833255767822 71 35 37
0.8445218205451965 -1.13693368434906 4.87694787979126 83 69 94
-1.2265405654907227 0.8369834423065186 6.234108924865723 99 60 78
-1.3245127201080322 0.2540380358695984 6.762209415435791 64 25 31
-0.8369039297103882 0.34120839834213257 6.052276611328125 185 178 165
-1.061348557472229 -1.1217148303985596 6.863166332244873 134 108 131
-0.9813283085823059 0.6058769226074219 6.338918685913086 52 23 29
-0.7734594345092773 -0.04703119769692421 6.071693420410156 155 139 118
10.225131034851074 -3.148214817047119 -0.00970188807696104 133 136 182
-1.1692399978637695 -0.0997350662946701 6.5671844482421875 59 24 27
0.09718873351812363 -0.13217434287071228 5.18177604675293 92 36 42
-1.8978334665298462 -0.03132035955786705 7.639949798583984 94 71 93
10.993351936340332 -5.219148635864258 -1.2630643844604492 78 62 104
1.0603619813919067 -0.08242280036211014 4.5925822257995605 146 127 146
-1.2594138383865356 0.38784846663475037 6.688564777374268 80 33 42
10.941560745239258 -5.558562755584717 -1.2325938940048218 171 144 187
-1.6170741319656372 0.8092250823974609 7.296462059020996 39 29 36
10.370975494384766 -1.9372440576553345 -0.4191082715988159 184 200 244
-1.2621091604232788 -0.11557032912969589 6.718984127044678 59 24 38
10.907005310058594 -5.470193386077881 -1.2155585289001465 174 151 192
-1.5178906917572021 -0.6428695917129517 7.303857803344727 75 57 75
-0.7764573693275452 0.3768751919269562 5.9113240242004395 81 69 57
-2.0155980587005615 0.6694217324256897 7.716911315917969 66 58 82
-1.094546914100647 0.17981600761413574 6.541922569274902 80 35 42
-0.9468804001808167 0.2788710296154022 6.2399516105651855 97 44 60
-1.7319632768630981 1.0046180486679077 5.256588459014893 71 30 41
0.6440027356147766 -0.3935304284095764 5.037823677062988 88 67 88
-1.7151798009872437 0.7589591145515442 6.852505207061768 120 85 89
-0.10675619542598724 0.6158469319343567 5.105712413787842 83 64 70
-1.584262728691101 -0.826636552810669 7.337948322296143 127 107 129
-1.2770154476165771 0.3713088929653168 6.698305130004883 135 82 99
-1.0327225923538208 -0.9802312254905701 6.294863700866699 126 81 101
-1.8233205080032349 1.062035083770752 6.760808944702148 90 54 60
-0.14528432488441467 0.580572247505188 5.104142665863037 146 102 128
1.0632461309432983 0.4188258945941925 4.525508403778076 143 121 139
10.993607521057129 -4.767484664916992 -1.3401474952697754 69 56 76
0.06823751330375671 0.21608108282089233 5.371387481689453 138 87 105
-1.5893512964248657 -0.7957886457443237 7.391271591186523 72 49 66
-1.8766794204711914 1.1084166765213013 5.397855758666992 76 36 44
10.661490440368652 -2.2291743755340576 -1.098106861114502 108 104 80
-1.4465930461883545 -0.6224416494369507 7.231234073638916 72 54 69
-0.4208777844905853 0.434888631105423 5.682877063751221 62 23 31
0.9258842468261719 -2.0248427391052246 4.875115871429443 77 59 88
-1.0533088445663452 -0.7095656394958496 6.2630486488342285 68 29 39
0.13339589536190033 0.7185627222061157 4.837411880493164 98 61 76
0.6636871695518494 -1.063336730003357 5.076928615570068 146 131 156
-1.4472099542617798 0.3927149474620819 6.870560169219971 77 37 51
-1.5493656396865845 0.2883149981498718 6.861714839935303 48 25 28
-1.7237179279327393 1.3087995052337646 6.684457778930664 56 44 46
-0.1477963626384735 0.22119104862213135 5.575741767883301 35 19 26
-1.6268547773361206 0.09190922975540161 6.798959732055664 139 87 103
-1.0643692016601562 0.9041213989257812 5.966001987457275 82 56 67
0.6070275902748108 -0.7060950398445129 5.1006340980529785 155 138 163
10.49609661102295 -1.134345293045044 -0.4168796241283417 186 202 246
-0.25080597400665283 0.7821723222732544 5.213606357574463 153 105 127
-1.0447750091552734 -1.1253114938735962 6.805847644805908 42 23 25
0.35446467995643616 -1.75737726688385 5.4376349449157715 109 84 110
-0.7984552383422852 0.243976891040802 5.858514308929443 195 195 191
-0.8032907247543335 0.22094173729419708 5.907674312591553 223 218 208
0.5634069442749023 -0.9330486059188843 5.168983459472656 75 62 82
-1.6943262815475464 0.5847833156585693 7.395851135253906 64 47 64
-0.15835946798324585 -0.2151416689157486 5.556687831878662 58 29 33
0.7924718856811523 0.302224338054657 4.845969200134277 147 130 149
-1.1128376722335815 0.06264244019985199 6.586241722106934 78 34 37
-1.0246344804763794 -0.8175178170204163 6.202574253082275 71 33 53
10.694323539733887 -1.0072832107543945 -0.6386430859565735 143 159 192
-1.8754874467849731 0.5932832360267639 7.581228733062744 104 88 99
-1.1976182460784912 -0.23397773504257202 6.659908294677734 53 19 26
-0.5191368460655212 -0.7661236524581909 5.708730220794678 68 32 40
-1.9014180898666382 1.4789860248565674 6.414474010467529 104 107 130
10.512103080749512 -2.211407423019409 -1.302253246307373 69 55 47
-1.272821068763733 0.5264803767204285 6.7291483879089355 45 17 21
-0.17359000444412231 0.7035825848579407 5.150134563446045 150 103 123
0.6514422297477722 -1.5463309288024902 5.123685836791992 107 81 106
1.225736379623413 0.7085964679718018 4.334263801574707 72 51 71
-0.14659984409809113 0.11443573981523514 5.576413154602051 126 72 85
0.9355785250663757 0.23051218688488007 4.676059246063232 155 135 153
-0.1633414924144745 -0.5242045521736145 5.610864162445068 115 83 100
-1.6311793327331543 0.6395029425621033 6.856231212615967 148 95 114
10.512103080749512 -2.211407423019409 -1.302253246307373 69 55 47
0.1934131234884262 0.3830893337726593 5.056421756744385 78 48 59
-1.18142569065094 1.0711106061935425 4.6807169914245605 91 45 67
10.993351936340332 -5.219148635864258 -1.2630643844604492 78 62 104
-1.3091254234313965 -0.6938295960426331 6.612433910369873 55 26 30
0.1654372215270996 -0.14762142300605774 4.981618404388428 75 53 72
-1.7369015216827393 1.2150354385375977 6.701385974884033 44 33 37
-1.3394640684127808 -0.17683939635753632 7.089251518249512 66 52 68
10.763605117797852 -4.897733211517334 -1.2328362464904785 105 83 97
-0.15180812776088715 0.09538815170526505 5.580185413360596 52 21 27
-0.14098899066448212 -0.6930906176567078 5.518570423126221 65 33 39
-1.2140765190124512 -0.3237071931362152 6.603981018066406 53 24 25
-0.8034985661506653 -0.02486630156636238 5.992578506469727 190 178 157
-0.7922417521476746 -0.10405754297971725 6.097703456878662 178 165 148
-1.6419265270233154 -0.31542670726776123 7.41251277923584 59 43 66
10.770105361938477 -6.117824554443359 -0.7363165616989136 172 185 231
-1.3063514232635498 0.22157612442970276 6.744027137756348 70 27 34
-0.7501299381256104 0.22324663400650024 6.0124640464782715 107 84 78
-0.8290848135948181 0.35065537691116333 6.118263244628906 82 52 43
-0.46781665086746216 0.13598370552062988 5.74760627746582 56 24 32
-1.8191237449645996 1.043153166770935 7.478365421295166 110 93 111
-0.792931854724884 -0.05287431553006172 5.997921466827393 199 192 172
-1.5364984273910522 0.806023895740509 6.5413408279418945 136 92 111
-0.4655425250530243 0.21604658663272858 5.740748405456543 93 47 63
-0.7481577396392822 -0.26103317737579346 6.060819149017334 144 132 111
-1.2936630249023438 0.41700974106788635 6.683538913726807 60 21 23
-1.880885362625122 0.7631620168685913 7.576861381530762 64 56 76
-0.15110111236572266 -0.4186437427997589 5.607998847961426 85 44 63
0.020756961777806282 0.2814793288707733 5.34300422668457 130 82 97
-1.272821068763733 0.5264803767204285 6.7291483879089355 45 17 21
-1.1092054843902588 0.18354490399360657 6.56039571762085 137 81 92
-0.13691338896751404 -0.021362727507948875 5.590709209442139 58 31 42
-1.4330084323883057 -0.01593470200896263 7.0895304679870605 150 97 115
10.999784469604492 -4.459681510925293 -1.3997539281845093 177 168 185
-0.8701271414756775 0.3331158757209778 5.940196990966797 147 138 122
-1.3564451932907104 -0.7378926277160645 6.6059956550598145 122 69 80
11.000665664672852 -5.908446788787842 -1.305206537246704 85 51 86
-1.0240808725357056 -0.204041987657547 6.037553310394287 131 115 98
-0.4367295205593109 0.09377298504114151 5.724613666534424 132 82 97
10.920162200927734 -5.3140764236450195 -1.3106613159179688 210 224 253
13.108308792114258 -1.6969484090805054 -4.886605262756348 179 191 232
9.542187690734863 0.5388360023498535 -1.530104160308838 28 36 39
-2.065030574798584 0.30317288637161255 7.8006815910339355 65 48 60
-2.0280113220214844 0.07551859319210052 7.774970054626465 125 111 137
13.24847412109375 -8.291829109191895 -4.666660785675049 148 155 197
14.42227840423584 -0.9467178583145142 -6.8209638595581055 98 108 153
10.593777656555176 -6.243013381958008 -0.37971144914627075 204 217 254
-1.7579028606414795 0.47690635919570923 7.469113826751709 58 49 61
13.7594575881958 -8.4310941696167 -5.544702529907227 71 54 85
14.41405963897705 -1.4235584735870361 -6.782039642333984 98 111 157
9.542187690734863 0.5388360023498535 -1.530104160308838 28 36 39
14.058043479919434 -8.49795150756836 -5.9790849685668945 69 53 83
-1.9267609119415283 -0.2637436091899872 7.687398433685303 120 103 131
11.247991561889648 -2.4880125522613525 -3.7688047885894775 185 201 245
11.247991561889648 -2.4880125522613525 -3.7688047885894775 185 201 245
10.690083503723145 -0.5382780432701111 -1.217740774154663 92 94 118
-1.7565805912017822 0.9316142201423645 6.182036399841309 71 34 41
13.036162376403809 -4.241760730743408 -4.398996829986572 93 105 150
14.42023754119873 -1.5081359148025513 -6.780355453491211 94 102 151
10.529082298278809 -6.180047988891602 -0.5299063324928284 156 147 177
10.659981727600098 -1.040421724319458 -1.1651803255081177 70 67 90
14.58625602722168 -1.2609221935272217 -7.047630786895752 185 193 231
11.820111274719238 -7.10659646987915 -2.3003251552581787 195 209 251
-1.6969467401504517 0.038046278059482574 7.446078777313232 57 42 53
0.06336530297994614 0.48427480459213257 5.098095893859863 164 121 140
-1.0070010423660278 -1.1578385829925537 6.105405807495117 48 27 34
10.674777030944824 -0.801182210445404 -1.185956358909607 82 85 113
11.651515007019043 -6.446313381195068 -2.102581739425659 97 99 153
-1.9950511455535889 0.7688210606575012 7.686023235321045 29 22 55
-1.8149195909500122 0.3549048602581024 7.536859512329102 42 30 37
10.67717456817627 -1.5683060884475708 -1.1437797546386719 77 77 95
13.006107330322266 -1.5898661613464355 -4.837409496307373 172 183 228
-1.8190553188323975 -0.3678537607192993 7.591266632080078 62 49 70
-1.9856916666030884 -0.43865805864334106 7.761153221130371 94 86 108
10.672675132751465 -1.3298239707946777 -1.1548097133636475 83 83 108
10.740775108337402 -3.2099647521972656 -0.9851351380348206 196 200 237
13.029311180114746 -7.173758506774902 -4.183295726776123 101 116 165
-2.0069055557250977 -0.41748183965682983 7.779727458953857 103 97 124
11.817071914672852 -7.478112697601318 -2.268519639968872 179 190 235
9.583938598632812 -2.5499649047851562 -1.9568146467208862 102 69 73
14.251980781555176 -8.538912773132324 -6.322209358215332 77 64 87
13.664764404296875 -7.775357246398926 -5.368117332458496 121 107 118
14.508366584777832 -6.949162483215332 -6.587151050567627 115 132 183
12.906811714172363 -5.432850360870361 -4.317723751068115 154 166 211
10.641180992126465 -3.0511162281036377 -0.83330237865448 171 176 211
-1.28774094581604 0.9310100674629211 6.196324825286865 94 66 81
9.732757568359375 -2.6337239742279053 -2.0311813354492188 182 159 174
-1.726305365562439 -0.30101221799850464 7.497194766998291 122 108 132
-1.2536487579345703 -0.8308379054069519 7.048821926116943 78 54 68
14.55677318572998 -6.930164813995361 -6.671779632568359 187 200 241
10.28159236907959 -2.4960334300994873 -1.2011382579803467 96 55 60
13.044129371643066 -7.651986122131348 -4.159418106079102 93 107 158
9.712742805480957 -2.3513007164001465 -2.010864019393921 148 139 114
-1.8054494857788086 0.053984902799129486 7.5550079345703125 45 38 45
10.655349731445312 -0.7494986057281494 -1.0185872316360474 96 100 138
-2.1000423431396484 0.6567395329475403 7.808436870574951 55 51 63
10.398454666137695 -1.9878615140914917 -0.4855336546897888 108 117 170
14.581831932067871 -5.132172584533691 -6.784247398376465 171 188 225
13.10486125946045 -1.3833845853805542 -4.942892074584961 119 126 172
11.831746101379395 -7.432165145874023 -2.2257747650146484 95 105 154
11.822324752807617 -4.042336940765381 -2.450044870376587 70 69 121
10.571714401245117 0.2816546857357025 -1.1864972114562988 125 95 108
-1.8243330717086792 0.268716961145401 7.555178642272949 50 40 49
9.199796676635742 0.8221790194511414 -1.098175287246704 91 97 108
-1.771424412727356 0.35618770122528076 7.487936973571777 53 39 48
10.671073913574219 -2.2564661502838135 -1.030621886253357 37 34 45
10.637502670288086 -6.2064900398254395 -0.35188862681388855 95 98 148
13.091889381408691 -0.8635043501853943 -4.97604513168335 118 125 169
10.61239242553711 -0.5821128487586975 -0.6895945072174072 69 78 110
10.617701530456543 -2.022650718688965 -0.8910556435585022 91 94 129
14.415265083312988 -7.9874701499938965 -6.364782810211182 92 95 150
13.33853816986084 -5.318973064422607 -4.982812404632568 143 147 195
10.326132774353027 -2.702173948287964 -1.450629711151123 200 212 252
-2.013932704925537 -0.13375535607337952 7.7711262702941895 64 49 72
14.130929946899414 -8.498187065124512 -6.167872428894043 76 61 86
-1.8214186429977417 0.42022305727005005 7.5361151695251465 68 55 65
-1.8231734037399292 0.31928694248199463 7.548801898956299 106 98 119
-2.013932704925537 -0.13375535607337952 7.7711262702941895 64 49 72
10.729363441467285 -1.296262264251709 -1.2146583795547485 57 55 77
11.572571754455566 -5.840017318725586 -2.2459628582000732 50 37 48
-1.714531660079956 -0.46046459674835205 7.497501373291016 55 37 52
-1.5540958642959595 0.005441796965897083 7.286609172821045 130 112 127
10.705041885375977 -1.8298072814941406 -1.1408506631851196 50 47 67
-1.8273264169692993 0.13859999179840088 7.566904067993164 57 42 57
10.957327842712402 -4.647404670715332 -1.3986326456069946 165 163 170
10.714815139770508 -0.2884489595890045 -1.2510864734649658 91 93 118
-1.5205804109573364 0.959282636642456 6.414065361022949 38 24 24
10.621289253234863 -0.4382174015045166 -0.7025038599967957 73 79 118
14.19905948638916 -7.0232720375061035 -6.162408828735352 94 102 153
13.82570743560791 -7.797918796539307 -5.604038238525391 120 127 168
10.772823333740234 -4.3838348388671875 -0.9922977685928345 108 109 128
10.29947280883789 -2.638378143310547 -0.33140960335731506 162 158 182
11.474594116210938 -5.483130931854248 -2.1859891414642334 184 181 170
14.407882690429688 -1.9854439496994019 -6.7368483543396 113 124 172
13.046764373779297 -4.484327793121338 -4.389614105224609 86 93 138
11.53271484375 -6.3254852294921875 -1.91587495803833 95 103 155
13.375399589538574 -8.324326515197754 -4.869491100311279 139 143 186
10.802379608154297 -4.186905384063721 -1.0365370512008667 115 110 144
10.6028413772583 -1.3728381395339966 -0.6240352988243103 70 75 110
10.671130180358887 -3.0748605728149414 -0.7956199049949646 117 92 124
10.728378295898438 -0.03920768201351166 -1.2855206727981567 94 91 119
12.993607521057129 -2.542956590652466 -4.6394734382629395 119 127 173
10.504267692565918 -1.4529067277908325 -0.4665120542049408 71 68 100
13.057466506958008 -2.190824031829834 -4.75560188293457 133 117 149
10.606999397277832 -3.065399646759033 -0.9158985614776611 114 74 76
-1.9839611053466797 0.5003745555877686 7.704922199249268 66 53 70
9.199796676635742 0.8221790194511414 -1.098175287246704 91 97 108
10.469091415405273 -2.2415263652801514 -0.5782813429832458 95 102 147
-1.8761078119277954 -0.002408956876024604 7.616897106170654 65 53 67
10.61298942565918 -0.3431938886642456 -0.7075384855270386 74 81 116
14.396096229553223 -6.8339152336120605 -6.431395530700684 106 114 169
10.948058128356934 -4.7511982917785645 -1.319356918334961 70 59 82
10.694157600402832 -3.248394250869751 -0.8973396420478821 196 201 243
-1.9610049724578857 -0.09967189282178879 7.720183849334717 52 44 56
11.016297340393066 -5.6660261154174805 -1.4317538738250732 205 216 255
11.770853996276855 -7.458074569702148 -2.146724224090576 179 193 242
-1.8235617876052856 0.46588218212127686 7.54476261138916 126 110 136
-1.839919090270996 -0.4937491714954376 7.618184566497803 76 58 84
14.508429527282715 -7.193843364715576 -6.57039737701416 100 113 165
10.638671875 -4.464642524719238 -0.44359681010246277 164 183 221
10.614839553833008 -0.9117491841316223 -0.6626273989677429 69 80 118
10.608559608459473 -0.680325984954834 -0.6749719977378845 70 79 114
9.783656120300293 0.2954931855201721 -1.9406336545944214 31 36 50
11.891539573669434 -3.8509767055511475 -2.562391757965088 201 215 254
11.07216739654541 -4.8948140144348145 -1.7548309564590454 109 86 103
10.750221252441406 -1.0353071689605713 -1.2413818836212158 64 61 82
14.537637710571289 -7.970327377319336 -6.586249828338623 150 162 202
1.0346108675003052 -1.3776003122329712 4.709048748016357 89 68 98
-1.8812192678451538 0.008098998107016087 7.625154972076416 118 106 130
13.5686616897583 -8.389311790466309 -5.282724380493164 77 54 79
10.399214744567871 0.5676689743995667 -0.7509320974349976 51 36 54
11.384478569030762 -5.382819652557373 -1.9535064697265625 121 115 141
12.20291805267334 -6.601805210113525 -3.0846259593963623 156 157 195
-1.6434226036071777 1.481712818145752 7.240988731384277 104 91 101
-1.2250038385391235 -0.8262032866477966 7.018016338348389 73 55 72
-1.3845303058624268 -0.6832576990127563 7.171133041381836 129 113 132
9.858033180236816 -2.378998279571533 -2.2505552768707275 157 144 133
10.549432754516602 -1.1383183002471924 -0.5634636878967285 175 190 233
-1.9849865436553955 -0.41789117455482483 7.750718593597412 111 101 128
11.891539573669434 -3.8509767055511475 -2.562391757965088 201 215 254
-1.9905198812484741 0.9575566053390503 7.668835639953613 55 45 60
-1.8009299039840698 1.0508533716201782 7.465854167938232 50 47 64
-1.9963735342025757 0.7831875681877136 7.683078765869141 26 17 57
10.603557586669922 -3.161151647567749 -0.44878965616226196 193 203 244
10.039772987365723 -3.1277382373809814 -1.8122766017913818 93 68 84
10.804706573486328 -4.781610012054443 -1.1101900339126587 72 47 54
13.058695793151855 -1.6435089111328125 -4.89704704284668 120 128 174
-1.5910977125167847 0.045794159173965454 7.331923484802246 123 104 124
13.006107330322266 -1.5898661613464355 -4.837409496307373 172 183 228
-2.129533052444458 0.3086749315261841 7.859366416931152 72 61 75
10.669747352600098 -2.194378614425659 -0.9506692886352539 122 130 165
-1.9984807968139648 0.6371005177497864 7.711782932281494 60 52 63
-1.949407935142517 0.08190994709730148 7.698342323303223 40 33 41
9.753990173339844 0.4283149540424347 -1.6983461380004883 37 47 52
13.118051528930664 -2.1237540245056152 -4.874613285064697 176 192 236
-1.6550629138946533 -0.33845219016075134 7.4275102615356445 122 99 118
12.818004608154297 -4.297750949859619 -4.043887138366699 132 149 201
-1.7327569723129272 -0.1390150785446167 7.492054462432861 55 46 65
14.552978515625 -7.170914649963379 -6.652138710021973 181 188 230
-1.306837797164917 -0.6705478429794312 7.090706825256348 62 40 53
12.592768669128418 -5.23220682144165 -3.8320536613464355 157 158 196
-1.949407935142517 0.08190994709730148 7.698342323303223 40 33 41
10.652957916259766 -1.6667309999465942 -0.9163491129875183 153 164 202
10.29947280883789 -2.638378143310547 -0.33140960335731506 162 158 182
10.65216064453125 -0.6441698670387268 -0.7600418925285339 190 204 243
14.513705253601074 -1.7703564167022705 -6.925307273864746 175 188 232
-1.3845303058624268 -0.6832576990127563 7.171133041381836 129 113 132
-0.8443533778190613 0.2876318395137787 5.892996788024902 148 147 133
14.429038047790527 -1.0308836698532104 -6.819888591766357 97 103 157
14.542407035827637 -7.408759593963623 -6.629051685333252 185 197 238
13.577784538269043 -6.811090469360352 -5.282809257507324 135 140 184
10.957327842712402 -4.647404670715332 -1.3986326456069946 165 163 170
10.393671989440918 -4.651442527770996 -0.19375723600387573 39 33 67
-1.6243884563446045 0.018293065950274467 7.366101264953613 60 46 56
14.398045539855957 -7.8825154304504395 -6.359935283660889 89 98 152
10.480472564697266 0.19770744442939758 -1.6889206171035767 58 42 58
10.655946731567383 -0.4029882252216339 -0.780128002166748 187 200 238
-1.702541470527649 -0.14204305410385132 7.465690612792969 53 43 55
11.471070289611816 -5.446889400482178 -2.104288339614868 79 59 61
-1.8221970796585083 0.03828870877623558 7.562140941619873 119 99 119
0.07894714176654816 0.46930062770843506 5.113690376281738 79 29 33
10.395153045654297 0.11338818818330765 -0.7097256183624268 171 184 223
-1.7685168981552124 0.26420125365257263 7.498661041259766 61 48 61
-1.77806556224823 -0.5133762359619141 7.5534820556640625 61 48 69
10.585081100463867 -2.468787431716919 -0.8744085431098938 105 69 75
10.555027961730957 -4.725285053253174 -0.5064749121665955 88 65 83
-1.6295264959335327 0.08587707579135895 7.3610734939575195 74 52 65
11.739766120910645 -4.066423416137695 -2.3254101276397705 70 73 125
10.750221252441406 -1.0353071689605713 -1.2413818836212158 64 61 82
10.155384063720703 -5.315173625946045 0.015389923006296158 187 204 247
-2.093083143234253 -0.0671113058924675 7.853673934936523 126 117 145
-1.944364070892334 -0.3185720443725586 7.71006441116333 45 37 55
12.939518928527832 -4.226376533508301 -4.247832298278809 119 130 180
-0.8323609828948975 0.3893064260482788 6.053049564361572 124 108 88
-1.7461681365966797 0.26369014382362366 7.474027633666992 63 50 63
14.610718727111816 -4.070394515991211 -6.81510066986084 172 189 233
11.471070289611816 -5.446889400482178 -2.104288339614868 79 59 61
11.940255165100098 -4.763096332550049 -3.0102317333221436 111 97 101
-1.9420613050460815 -0.4341850280761719 7.713611125946045 39 37 50
11.147727012634277 -5.293562412261963 -1.5526223182678223 178 192 236
-1.9726543426513672 1.2192847728729248 7.626789569854736 69 61 74
12.384490013122559 -7.6792826652526855 -3.29593825340271 122 128 163
10.43936538696289 -4.899723052978516 -0.44283369183540344 136 140 179
10.469091415405273 -2.2415263652801514 -0.5782813429832458 95 102 147
-2.065471649169922 -0.07035982608795166 7.823915958404541 121 110 135
12.250041007995605 -4.584737777709961 -3.354278564453125 83 79 110
10.115301132202148 -2.773423194885254 -2.559138298034668 193 173 195
14.458074569702148 -7.651109218597412 -6.514645576477051 176 188 237
10.40523624420166 -2.253239154815674 -1.2375329732894897 75 57 52
11.472671508789062 -5.300533771514893 -2.1126880645751953 178 171 157
14.519536018371582 -5.152030944824219 -6.690371990203857 110 123 174
10.614572525024414 -0.8121089339256287 -0.6698092222213745 70 75 110
-1.8056092262268066 0.46658724546432495 7.517440319061279 109 92 101
14.178287506103516 -8.06447696685791 -6.0756378173828125 92 100 145
14.50577449798584 -4.897515773773193 -6.698818206787109 120 139 188
-1.9099348783493042 1.2071471214294434 7.558749675750732 71 65 80
10.65112018585205 -1.4370627403259277 -0.6988318562507629 186 199 238
-1.9417856931686401 1.0924233198165894 7.597597599029541 119 114 144
12.592768669128418 -5.23220682144165 -3.8320536613464355 157 158 196
10.573246955871582 -3.2396368980407715 -3.4186506271362305 143 150 179
-1.1576189994812012 0.8618935346603394 6.166635990142822 84 43 57
0.12828285992145538 0.42398491501808167 5.132970333099365 80 31 36
-1.7285785675048828 -0.31191200017929077 7.5022454261779785 45 34 44
10.38608455657959 -2.364413261413574 -1.2177932262420654 73 44 46
14.557304382324219 -8.152502059936523 -6.592413425445557 141 146 188
10.681565284729004 -2.943204164505005 -0.787808358669281 170 176 223
12.855130195617676 -6.205484390258789 -4.178986072540283 118 113 156
14.426325798034668 -1.8112797737121582 -6.761969089508057 113 125 176
14.479358673095703 -4.457983016967773 -6.639914512634277 70 78 136
10.252171516418457 -4.853152275085449 -0.12589888274669647 123 135 183
-2.0059449672698975 -0.17116937041282654 7.761470317840576 130 111 139
10.095878601074219 -4.82288122177124 0.14789272844791412 148 143 172
-1.5630618333816528 -0.33046263456344604 7.331043243408203 62 45 56
13.00624942779541 -5.466181755065918 -4.443161964416504 200 213 254
10.564599990844727 -2.301788091659546 -0.7661892771720886 154 164 199
-2.1016407012939453 1.0842751264572144 7.782876491546631 69 64 87
13.241838455200195 -6.554227352142334 -4.709388732910156 180 195 238
13.014559745788574 -1.1182684898376465 -4.906164169311523 122 129 176
14.39084243774414 -5.0387282371521 -6.5273847579956055 109 115 170
14.40880298614502 -7.5609259605407715 -6.391211032867432 81 87 143
10.661237716674805 -0.024614034220576286 -0.9882139563560486 102 70 89
-1.5630618333816528 -0.33046263456344604 7.331043243408203 62 45 56
14.513339042663574 -6.861854553222656 -6.598198890686035 98 115 164
10.614097595214844 -3.22768235206604 -0.5118246078491211 89 93 136
10.610153198242188 -1.466340184211731 -0.6192204356193542 69 79 116
10.52401351928711 -5.57089900970459 -0.5221188068389893 154 166 217
10.980199813842773 -5.897170543670654 -1.2971596717834473 88 53 86
-1.1943920850753784 -0.9372750520706177 6.9892964363098145 97 67 90
9.779780387878418 -2.326296329498291 -2.1076295375823975 100 82 71
10.983389854431152 -5.7883100509643555 -1.5272372961044312 197 211 250
-2.1016407012939453 1.0842751264572144 7.782876491546631 69 64 87
12.27311897277832 -7.321706771850586 -3.1851706504821777 128 115 141
-1.8634854555130005 0.05520472675561905 7.616261959075928 32 24 32
10.176864624023438 -2.1030547618865967 -0.11156798154115677 112 121 169
10.696075439453125 0.19875448942184448 -1.1619902849197388 74 70 99
-1.9374847412109375 0.6751248240470886 7.6289801597595215 97 84 119
-1.9099348783493042 1.2071471214294434 7.558749675750732 71 65 80
-1.4198914766311646 -0.7895104289054871 7.219612121582031 133 113 142
-1.206660509109497 -0.8255682587623596 6.994303226470947 75 57 70
10.649916648864746 -0.8827173709869385 -0.7408888339996338 188 205 246
10.817771911621094 -4.702136039733887 -1.0490045547485352 72 58 77
14.283956527709961 -2.5915257930755615 -6.729132652282715 122 140 188
-1.498714566230774 -0.24600850045681 7.2511701583862305 64 47 59
-2.0133633613586426 -0.2506557106971741 7.7687506675720215 115 97 120
10.482575416564941 -0.32318857312202454 -0.5390588641166687 79 76 109
-1.8128665685653687 0.4390281140804291 7.5327372550964355 51 42 48
10.340508460998535 -5.223147869110107 -0.2527317702770233 132 120 162
10.978161811828613 -5.879788398742676 -1.289345145225525 96 65 95
10.804706573486328 -4.781610012054443 -1.1101900339126587 72 47 54
-1.9513907432556152 -0.4439248740673065 7.727252960205078 109 101 134
-2.071255922317505 -0.40821391344070435 7.846927165985107 107 95 118
-2.064358711242676 0.7835850715637207 7.761296272277832 61 50 74
-1.56618070602417 -0.159870907664299 7.321286201477051 57 42 52
-2.0681471824645996 0.5135833621025085 7.794370174407959 44 41 56
11.419513702392578 -5.282046318054199 -2.0353002548217773 79 61 61
10.586724281311035 -5.875819206237793 -0.596517026424408 113 96 134
-1.7177056074142456 1.2067022323608398 7.392634868621826 39 34 40
10.127557754516602 -4.868655204772949 0.14380164444446564 192 209 250
10.907136917114258 -4.446985244750977 -1.1951171159744263 122 109 135
12.994115829467773 -5.048887729644775 -4.289509296417236 36 36 58
11.720548629760742 -4.173586368560791 -2.253998279571533 207 220 254
10.395153045654297 0.11338818818330765 -0.7097256183624268 171 184 223
10.787382125854492 -0.5163694024085999 -1.2925829887390137 65 67 94
10.464300155639648 -0.8936541676521301 -0.486985981464386 73 74 106
-1.8128665685653687 0.4390281140804291 7.5327372550964355 51 42 48
-1.9765039682388306 -0.07552645355463028 7.724704742431641 120 113 144
10.600255966186523 -4.094431400299072 -0.4557221829891205 77 86 125
1.0346108675003052 -1.3776003122329712 4.709048748016357 89 68 98
-1.512374997138977 -0.4978545308113098 7.288623332977295 57 44 62
14.259025573730469 -7.579606056213379 -6.2602925300598145 169 185 233
10.928828239440918 -5.315858364105225 -1.3164020776748657 211 226 254
10.125720977783203 -4.925478935241699 0.11427680402994156 187 201 243
-0.8061490654945374 -0.018886083737015724 6.100703239440918 87 60 46
0.02229847013950348 0.40699177980422974 5.400717258453369 72 30 43
12.750926971435547 -5.251749515533447 -4.068489074707031 143 151 196
11.342425346374512 -5.809118270874023 -1.92470121383667 73 61 60
11.595873832702637 -7.4103779792785645 -1.9533356428146362 208 222 254
-1.644446611404419 0.18932560086250305 7.377726078033447 47 37 48
-1.6504204273223877 1.1714876890182495 7.3204121589660645 41 40 49
-1.956390619277954 0.9416379928588867 7.623473644256592 125 111 135
-1.6243884563446045 0.018293065950274467 7.366101264953613 60 46 56
-2.051133394241333 1.180428147315979 7.71710729598999 120 115 138
-1.3212908506393433 -0.6714766025543213 7.105945110321045 85 55 64
9.779780387878418 -2.326296329498291 -2.1076295375823975 100 82 71
10.4318265914917 -3.0474908351898193 -1.223101019859314 130 131 151
10.976091384887695 -5.401669025421143 -1.3709286451339722 94 76 105
-2.075371026992798 -0.2553771138191223 7.844014644622803 55 46 60
-1.8844070434570312 0.29165777564048767 7.616025447845459 59 49 69
10.261667251586914 -2.898014545440674 -0.32803523540496826 186 197 243
-1.6835507154464722 0.8107775449752808 7.369787216186523 45 34 46
11.862236976623535 -4.3675217628479 -2.612424850463867 148 124 139
11.399454116821289 -5.854983806610107 -2.0781285762786865 175 172 159
11.682746887207031 -5.289292812347412 -2.4573028087615967 187 199 234
-1.5596323013305664 0.44164079427719116 7.264476776123047 65 49 60
-1.8290473222732544 0.34172719717025757 7.556727409362793 117 104 129
10.447970390319824 0.14404021203517914 -0.714060366153717 124 133 175
10.021347045898438 -2.860769271850586 -2.4018352031707764 101 99 124
-2.0099759101867676 0.04104730486869812 7.755043029785156 83 63 86
10.718873023986816 0.06326328217983246 -1.2464652061462402 128 128 143
0.9887075424194336 -1.5656133890151978 4.773073196411133 96 77 107
11.052191734313965 -2.417712926864624 -3.7577807903289795 42 26 29
11.772012710571289 -4.669878005981445 -2.3296427726745605 50 44 95
11.822185516357422 -3.9635167121887207 -2.449965476989746 92 97 151
9.918294906616211 -2.0915133953094482 -2.222057580947876 155 141 131
-1.817216157913208 -0.11148684471845627 7.563016891479492 137 120 145
-1.77806556224823 -0.5133762359619141 7.5534820556640625 61 48 69
-1.304196834564209 -0.34041497111320496 7.059682846069336 54 36 42
-0.8229033350944519 0.28302887082099915 5.944705009460449 186 178 161
-1.7921152114868164 1.0485676527023315 7.456214427947998 37 36 47
10.35299015045166 -4.870702743530273 -0.2586231827735901 126 133 179
-1.8009299039840698 1.0508533716201782 7.465854167938232 50 47 64
-1.6754379272460938 0.4639463424682617 7.379955291748047 113 94 111
-1.0441612005233765 -0.9571736454963684 6.844354152679443 56 42 56
10.89145565032959 -5.538656711578369 -1.2099512815475464 177 147 190
-1.9493026733398438 0.7128151655197144 7.640332221984863 167 184 253
10.43603801727295 -2.117809772491455 -0.5395763516426086 172 183 225
-1.1993963718414307 -0.8964212536811829 6.991776943206787 134 116 139
11.042128562927246 -5.317775726318359 -1.4165489673614502 90 89 108
14.350397109985352 -4.460054874420166 -6.488809108734131 190 206 248
12.750926971435547 -5.251749515533447 -4.068489074707031 143 151 196
-1.1576189994812012 0.8618935346603394 6.166635990142822 84 43 57
-1.950698971748352 0.8226408362388611 7.6250081062316895 156 173 242
13.024316787719727 -4.5693769454956055 -4.384267807006836 193 207 248
-1.7793598175048828 0.47642409801483154 7.491146087646484 57 46 52
13.119952201843262 -1.027503490447998 -4.712908744812012 170 181 217
-1.1665326356887817 -0.935165286064148 6.962560176849365 135 110 128
11.905335426330566 -3.9423611164093018 -2.5580756664276123 203 212 252
10.552671432495117 -2.281519651412964 -1.0231345891952515 136 122 96
11.635346412658691 -4.069519996643066 -2.149395227432251 168 181 228
-1.585706114768982 0.652987539768219 6.807722568511963 94 53 66
-1.907341718673706 -0.28878098726272583 7.667788982391357 119 101 123
10.616787910461426 -6.053998947143555 -0.34922289848327637 97 105 154
-0.6726202964782715 -0.2300635129213333 5.971347332000732 50 26 26
12.784624099731445 -5.6740570068359375 -4.090167045593262 191 206 250
-2.0216619968414307 -0.2480725795030594 7.790646076202393 115 98 122
10.599748611450195 -1.6146138906478882 -0.6044270396232605 57 60 85
13.115179061889648 -0.3410828709602356 -5.0234055519104 111 120 162
14.318266868591309 -5.8963117599487305 -6.539820194244385 123 124 171
-1.731986403465271 0.8147811889648438 7.4153547286987305 51 43 51
-0.7950286865234375 0.30498459935188293 6.007233619689941 166 159 136
10.65112018585205 -1.4370627403259277 -0.6988318562507629 186 199 238
-0.8296140432357788 0.37979868054389954 6.075145721435547 65 37 32
10.246203422546387 -5.318388938903809 -0.10142990201711655 131 140 188
10.674449920654297 -4.6745452880859375 -0.7685369849205017 198 213 255
11.833250045776367 -7.664290904998779 -2.205772876739502 82 84 136
-1.6352781057357788 -0.3285408616065979 7.4091057777404785 64 44 61
-2.016777992248535 0.1391165554523468 7.757818222045898 73 59 75
14.525766372680664 -2.248164176940918 -6.880321979522705 85 97 129
11.582947731018066 -4.8317413330078125 -2.267282009124756 151 134 145
14.503287315368652 -1.8299776315689087 -6.89685583114624 117 137 180
11.680314064025879 -5.825940132141113 -2.4182019233703613 169 163 172
-1.8713678121566772 0.035828959196805954 7.616100788116455 61 48 65
-1.927609920501709 1.2145694494247437 7.582431316375732 36 29 38
11.823278427124023 -3.861117362976074 -2.4611165523529053 100 117 168
-1.5174808502197266 -0.5081499218940735 7.298785209655762 62 55 63
0.9360228776931763 -2.029855728149414 4.872186660766602 75 61 90
14.16539192199707 -2.417821168899536 -6.505549430847168 182 191 233
13.077549934387207 -0.6009538173675537 -4.992191791534424 113 118 162
10.668296813964844 0.019847992807626724 -1.0273317098617554 153 157 192
12.934117317199707 -7.8903045654296875 -3.985140800476074 92 90 144
11.87281608581543 -4.452127456665039 -2.5154776573181152 185 195 236
