ply
format ascii 1.0
element vertex 711
property float x
property float y
property float z
property uchar red
property uchar green
property uchar blue
end_header
0.941940426826477 -1.4898585081100464 5.070565700531006 143 121 144
0.8736580014228821 -1.1941778659820557 5.099282741546631 137 124 150
0.9526668787002563 1.1620020866394043 4.7640485763549805 118 113 136
-1.7296754121780396 0.947462797164917 7.475421905517578 105 84 89
0.6798579096794128 0.19131171703338623 5.149898529052734 149 131 153
-1.3113898038864136 1.3020459413528442 4.708806037902832 81 50 56
0.24149134755134583 -1.484833002090454 5.775149345397949 106 76 104
-0.9595918655395508 0.8439108729362488 6.045507907867432 89 46 63
0.8685315847396851 0.8984019756317139 4.870577335357666 108 84 108
0.6435244679450989 -0.7555551528930664 5.303075790405273 75 55 80
-1.921684980392456 -1.1055970191955566 7.910224914550781 93 60 79
0.9302423596382141 1.1604398488998413 4.781759738922119 66 52 78
0.9438199996948242 -1.3588484525680542 5.066223621368408 131 114 133
0.3375031352043152 -0.5379113554954529 5.577084541320801 101 72 90
0.8650915026664734 0.9765746593475342 4.863367557525635 149 140 167
0.8241406679153442 -0.2380722165107727 5.0652546882629395 64 43 52
-0.2737375795841217 0.6833698153495789 5.372007369995117 85 43 57
-2.1297810077667236 0.6756337881088257 7.9025468826293945 56 44 54
0.28807172179222107 -1.1132627725601196 5.69005012512207 75 55 83
-0.989780068397522 0.1923574060201645 6.40110969543457 56 35 42
-1.9970059394836426 -0.4301338493824005 7.882802963256836 130 116 139
-2.3748788833618164 -0.22409507632255554 8.240426063537598 135 125 150
-1.985116720199585 0.4881554841995239 7.781704425811768 67 56 70
-1.61052405834198 -1.1413962841033936 7.600653171539307 94 70 86
0.3856792151927948 -0.8334119915962219 5.555144786834717 102 72 96
0.5796508193016052 -0.3805009722709656 5.315144062042236 153 134 154
-2.3716368675231934 0.11933523416519165 8.205221176147461 59 48 65
0.5793911814689636 0.3341616094112396 5.239682197570801 100 73 92
-0.774242103099823 -0.2877185344696045 6.214699745178223 65 30 34
-1.0191380977630615 -0.3144279420375824 6.443952560424805 134 87 105
-0.43190982937812805 0.35776394605636597 5.825507164001465 62 27 33
1.1794253587722778 1.102569341659546 4.547694206237793 139 115 131
-1.882280707359314 -0.46575137972831726 7.780810356140137 125 121 146
-2.2039661407470703 0.17178066074848175 8.017603874206543 82 69 87
0.7704456448554993 0.2675519287586212 5.04337215423584 142 124 138
0.86794114112854 -0.802315354347229 5.064148902893066 133 117 130
0.8005673885345459 -1.216204285621643 5.188571453094482 77 59 75
0.09053685516119003 -0.26390689611434937 5.388413429260254 164 132 156
1.228531837463379 -1.6725080013275146 4.797541618347168 89 73 102
-2.0197367668151855 1.1238410472869873 5.519864082336426 88 37 52
-1.9745497703552246 0.6787031292915344 7.749281406402588 103 95 118
-2.2525835037231445 -0.47800031304359436 8.139358520507812 63 48 79
0.7670718431472778 0.20197159051895142 5.064774036407471 94 76 100
-1.9792300462722778 0.3973529636859894 7.793315410614014 54 42 54
-0.6179512739181519 -0.9079546332359314 5.9413981437683105 79 43 53
0.9554811716079712 -1.0145381689071655 4.997403144836426 54 42 62
0.6163156628608704 -0.38485896587371826 5.285457611083984 130 117 137
0.9964840412139893 1.177332878112793 4.710864543914795 152 129 155
1.1547833681106567 0.9178633689880371 4.594942092895508 73 59 72
-1.4729456901550293 0.4343704283237457 7.030360698699951 53 28 34
0.3864993453025818 -0.7036672234535217 5.553350925445557 91 71 98
0.2990306317806244 -1.6559535264968872 5.750245571136475 99 76 104
0.9245101809501648 -1.2066320180892944 5.053562164306641 76 64 84
-1.9745880365371704 -0.43824148178100586 7.87661600112915 44 41 62
-0.6584909558296204 -0.9023647308349609 6.001353740692139 113 66 76
-0.9791839122772217 0.3344656825065613 6.389593124389648 79 46 57
0.7663461565971375 0.1906014233827591 5.072604656219482 144 137 153
-1.8574707508087158 0.44305822253227234 7.65221643447876 117 100 119
-0.5942785143852234 -0.5470196008682251 6.080473899841309 59 32 41
-2.137911319732666 0.7769185304641724 7.887866020202637 172 190 255
-1.4587634801864624 -0.5144526362419128 7.373444080352783 64 40 53
0.9075421094894409 0.20966680347919464 4.932759761810303 153 129 145
-0.030215825885534286 0.6412754058837891 5.133203506469727 49 34 39
-1.9679921865463257 0.6961050629615784 7.732761383056641 59 57 78
1.041703462600708 -0.917880654335022 4.913422584533691 98 71 88
-2.062580108642578 1.6042813062667847 7.724332809448242 53 51 64
-1.6205992698669434 -0.3170994222164154 7.513437271118164 138 117 136
0.9648729562759399 -1.4551141262054443 5.046185493469238 138 116 137
1.2614213228225708 -0.2363080084323883 4.596935272216797 144 122 143
-1.3459769487380981 -0.951505184173584 7.31001091003418 141 118 134
0.6175707578659058 0.3300449550151825 5.2097063064575195 72 48 62
0.7016483545303345 -0.5980315804481506 5.233772277832031 62 44 66
-2.355668067932129 0.7397394180297852 8.108786582946777 136 124 144
0.7355663180351257 0.6654258966445923 5.051908493041992 49 33 59
-0.7111995220184326 -0.18910102546215057 6.173675060272217 66 30 32
1.1077958345413208 0.46471598744392395 4.677032947540283 130 109 126
-0.9827111959457397 0.42415934801101685 6.375272274017334 54 28 37
0.9443292617797852 0.27093440294265747 4.865494728088379 146 129 145
0.6805058717727661 -1.0039595365524292 5.282304763793945 76 49 66
-0.7870208621025085 -0.27668988704681396 6.235257148742676 197 185 159
-1.0399305820465088 -0.8796940445899963 6.363516807556152 60 29 37
0.5242395997047424 -1.3931055068969727 5.492179870605469 89 66 82
0.8234385848045349 0.6268559694290161 4.9388861656188965 81 58 66
0.6435244679450989 -0.7555551528930664 5.303075790405273 75 55 80
0.7507970333099365 0.8166730999946594 5.007471084594727 89 70 92
1.199060320854187 -1.2572016716003418 4.772673606872559 131 116 135
0.7403715252876282 0.4620770812034607 5.062349319458008 124 106 122
0.8930425643920898 -0.24375203251838684 4.99365758895874 67 53 66
-0.4666597843170166 -0.046740032732486725 5.903524875640869 84 53 68
1.0337563753128052 -0.03742701932787895 4.8404340744018555 78 58 70
-1.77204430103302 0.26958534121513367 7.597999095916748 61 49 63
0.7923676371574402 -0.6012904047966003 5.138976097106934 64 47 57
-1.4300267696380615 1.0151491165161133 4.939126491546631 99 46 64
-1.5099033117294312 -0.7206597328186035 7.467191219329834 30 26 43
-1.3733617067337036 -1.1427561044692993 7.363203048706055 80 59 76
-1.4349020719528198 -0.8431990146636963 7.387068271636963 94 66 78
-1.9154495000839233 0.430649071931839 7.700248718261719 133 109 123
-1.1502556800842285 0.09199973940849304 6.747976303100586 51 30 37
-0.25250178575515747 0.22082823514938354 5.831151008605957 56 20 32
-0.5932196378707886 -0.5491256713867188 6.0677571296691895 64 38 47
0.7002977728843689 0.45231834053993225 5.0912041664123535 137 114 130
-0.46182650327682495 0.3610096573829651 5.856031894683838 57 25 38
-1.4465159177780151 -0.6958351135253906 7.385649681091309 92 64 78
-0.5135690569877625 -0.037861574441194534 5.9502458572387695 68 38 48
-1.7852474451065063 1.2484652996063232 7.487125873565674 44 33 41
1.2474769353866577 -0.2590351998806 4.613804817199707 147 132 151
-1.795194387435913 0.5336630940437317 7.588390827178955 124 103 122
-0.9261395931243896 -1.0710443258285522 6.324610233306885 85 44 60
0.8051261901855469 0.1683754026889801 5.03179407119751 73 53 78
1.0306706428527832 0.6818373799324036 4.726655960083008 98 74 87
-1.2475699186325073 0.2816276550292969 6.726386547088623 135 83 96
0.303232342004776 -1.4999942779541016 5.716548919677734 105 77 102
-1.4156663417816162 0.5508001446723938 6.954565048217773 60 34 43
-1.1557767391204834 0.9554711580276489 6.123968124389648 75 54 63
1.1527386903762817 0.899493396282196 4.581491470336914 140 117 127
0.9508634209632874 0.9401311874389648 4.787062644958496 79 58 77
-0.7765141129493713 0.8245274424552917 5.87075138092041 79 42 59
1.1021023988723755 -1.0139678716659546 4.84836483001709 147 132 155
-0.9447941780090332 0.2538359463214874 6.354578971862793 54 24 32
0.9983625411987305 0.13437363505363464 4.8256449699401855 129 106 122
1.0255520343780518 -1.0168536901474 4.935007572174072 63 52 66
-1.6505430936813354 1.1391292810440063 5.149270534515381 100 49 64
0.7067208886146545 -1.2567460536956787 5.284863471984863 103 75 100
0.9997793436050415 -0.4510051906108856 4.9062089920043945 91 60 76
-1.3385177850723267 -1.1956677436828613 7.33072566986084 138 105 122
1.103872537612915 -0.8791885375976562 4.838427543640137 105 80 110
-2.1746013164520264 -1.085988998413086 8.148350715637207 79 57 70
0.314387708902359 -1.3720899820327759 5.700943470001221 103 68 88
-2.23496150970459 -0.9556742310523987 8.182929039001465 86 65 80
0.887578547000885 0.6495755314826965 4.8889923095703125 85 61 75
-1.8969626426696777 1.2975373268127441 7.612812519073486 44 41 48
-0.7945152521133423 0.1565837264060974 6.305871486663818 37 16 15
0.6027089953422546 -1.007380723953247 5.3593621253967285 85 74 82
-0.8441779613494873 -0.1277955323457718 6.290370941162109 176 159 141
0.6888167858123779 -1.1978240013122559 5.306524753570557 74 54 79
-0.18950627744197845 0.6399244666099548 5.302961349487305 74 35 53
-1.5964983701705933 0.9046858549118042 6.660991668701172 60 33 42
-2.3180630207061768 0.08011922985315323 8.155842781066895 36 35 53
-2.1595711708068848 -0.7092980742454529 8.097555160522461 128 112 125
-1.0490113496780396 -0.31059330701828003 6.488125801086426 132 87 107
0.7364944219589233 -0.22009719908237457 5.1335768699646 122 107 126
0.7921943068504333 -0.7817611694335938 5.148220539093018 79 61 87
-1.268550157546997 1.1733813285827637 4.764754772186279 77 41 53
0.3732945919036865 -1.0799586772918701 5.618137359619141 93 70 86
-1.8155081272125244 0.32712218165397644 7.630415439605713 51 36 55
0.8150105476379395 0.782709002494812 4.94878625869751 97 65 80
-0.19773276150226593 0.1575150042772293 5.667685508728027 150 107 117
-1.751564860343933 0.7400208711624146 7.510716915130615 102 87 110
-2.2608065605163574 1.32870614528656 7.957945823669434 55 50 57
-1.8377082347869873 0.9435842633247375 6.904818534851074 69 39 49
1.0663104057312012 0.4270009994506836 4.732594013214111 134 111 127
0.8891831636428833 0.8822448253631592 4.852904319763184 162 141 160
0.9254768490791321 -1.721128225326538 5.117358207702637 91 68 96
-2.1250712871551514 0.32302919030189514 7.925551891326904 61 50 66
0.043625637888908386 0.029374640434980392 5.5230712890625 114 69 76
-1.2604527473449707 -1.1797850131988525 7.264686107635498 91 75 104
0.9254768490791321 -1.721128225326538 5.117358207702637 91 68 96
-1.411887288093567 -0.3449886441230774 7.3020453453063965 64 40 54
-0.4355764091014862 0.7706049680709839 5.521342754364014 57 35 47
-1.8936067819595337 0.7990684509277344 7.657009124755859 61 44 62
0.9351511001586914 0.22952665388584137 4.888040065765381 86 63 83
-1.6146546602249146 0.7916347980499268 6.688658714294434 137 91 104
-2.2991316318511963 0.7189496755599976 8.063560485839844 61 54 70
1.0586639642715454 0.6759258508682251 4.702678203582764 102 74 88
0.5242395997047424 -1.3931055068969727 5.492179870605469 89 66 82
0.8591775298118591 0.6453582644462585 4.930639743804932 85 59 68
-2.247967481613159 -0.6607781648635864 8.157544136047363 67 63 88
0.25507670640945435 -1.24282705783844 5.749958038330078 154 134 159
-1.0463184118270874 0.4373783469200134 6.436649322509766 138 80 92
-1.3459769487380981 -0.951505184173584 7.31001091003418 141 118 134
0.7069178223609924 -1.1482688188552856 5.272195816040039 131 113 135
-1.7500017881393433 0.7218165397644043 7.520946979522705 40 29 43
-0.6013878583908081 0.5542029738426208 5.878425121307373 166 118 132
-0.4660946726799011 0.03576077148318291 5.891920566558838 59 27 40
0.5689614415168762 -1.3001939058303833 5.433062553405762 96 69 86
-2.1993887424468994 0.3368287980556488 8.003539085388184 76 62 85
-0.15154089033603668 -0.1211269199848175 5.771816730499268 69 38 53
-2.254441261291504 1.2731029987335205 7.954379081726074 126 122 145
0.9554261565208435 0.6330126523971558 4.817222595214844 130 110 121
0.6241295337677002 -1.4121071100234985 5.398006916046143 87 64 84
1.0082526206970215 0.9095667600631714 4.734816551208496 84 65 87
-1.0279912948608398 0.5234733819961548 6.4079461097717285 58 31 40
-1.3071264028549194 -1.036144733428955 7.275351047515869 104 71 90
0.966791033744812 0.8023760914802551 4.788214683532715 72 58 84
-2.301431655883789 -0.391201913356781 8.177374839782715 138 123 144
0.1355907917022705 0.42362648248672485 5.2603678703308105 150 106 121
-0.024417676031589508 0.7530555129051208 5.115803241729736 97 63 79
-2.0260276794433594 0.06367021054029465 7.87076473236084 114 95 115
0.8273199200630188 0.49365535378456116 4.937795162200928 35 77 185
-1.8500370979309082 1.060605764389038 5.353967189788818 89 39 50
-1.7334299087524414 1.4212841987609863 6.726181983947754 26 25 30
-0.15373535454273224 0.3383285105228424 5.720180034637451 140 89 96
-1.422340989112854 0.8008040189743042 6.508937358856201 77 45 60
0.7761169075965881 0.1812526434659958 5.061384201049805 77 55 76
-1.2132515907287598 -0.2708607017993927 6.807065486907959 116 66 75
-2.0348615646362305 -0.8067627549171448 7.965664386749268 86 57 62
1.0091667175292969 0.819633424282074 4.761050224304199 145 133 157
0.6140233874320984 0.34335753321647644 5.218278884887695 134 121 139
-1.2252583503723145 -1.2080869674682617 7.234129428863525 95 70 92
-1.5360182523727417 -0.5084502696990967 7.448392868041992 80 62 86
0.9715253710746765 -0.4509009122848511 4.941415786743164 77 53 67
0.4773627817630768 -1.2892364263534546 5.523235321044922 86 60 85
0.9962189793586731 -1.651689887046814 5.048035621643066 83 58 88
-0.4224063754081726 0.19539141654968262 5.835221290588379 57 24 33
-0.3900473117828369 0.6810678243637085 5.48614501953125 142 95 115
0.9970777630805969 0.5126166939735413 4.776242733001709 94 63 79
0.29519006609916687 -0.7740545868873596 5.652654647827148 104 81 107
-1.0294487476348877 0.4304961860179901 6.422609329223633 59 29 39
-1.8089284896850586 1.2604775428771973 7.545933246612549 36 29 36
-0.07020364701747894 0.6553171873092651 5.1640214920043945 69 57 61
1.2603098154067993 -1.0780574083328247 4.696448802947998 97 77 102
-1.1352721452713013 0.9394067525863647 6.108614444732666 160 126 150
-1.635125994682312 1.3407635688781738 5.0301032066345215 89 51 62
-2.1139631271362305 1.2976078987121582 7.809166431427002 122 110 130
-0.0945713073015213 0.3439599275588989 5.6689863204956055 82 38 53
1.161885142326355 0.20507706701755524 4.6543989181518555 87 68 87
0.37165722250938416 -0.7041442394256592 5.562675476074219 91 65 92
-0.9880993962287903 0.09393953531980515 6.412130355834961 53 28 34
-2.206155776977539 -0.27364441752433777 8.063226699829102 125 113 135
0.1261236071586609 1.1562252044677734 4.896536350250244 48 31 37
0.8492196202278137 -0.8066985011100769 5.094101905822754 92 75 91
-1.9524937868118286 0.7916996479034424 7.707432270050049 63 49 66
0.8736332058906555 -1.1772046089172363 5.101203918457031 83 65 89
0.050522658973932266 -1.6098192930221558 5.985785961151123 97 69 91
0.9205028414726257 -1.4227272272109985 5.083642959594727 145 127 149
-0.896015465259552 0.7155646681785583 5.988103866577148 142 156 203
-0.7266767621040344 -1.265118956565857 5.9968461990356445 53 28 34
0.8848432302474976 0.5179063081741333 4.889159679412842 141 117 131
-0.17462888360023499 0.17457014322280884 5.641774654388428 153 105 117
0.3032160997390747 -1.5491371154785156 5.724222660064697 134 121 147
-2.289105176925659 -0.9755333065986633 8.239900588989258 136 115 132
1.0037720203399658 0.24945418536663055 4.7987060546875 106 78 101
0.4961199462413788 -1.641385555267334 5.545308589935303 149 127 148
-1.0326623916625977 0.09967277944087982 6.460367202758789 52 25 34
0.951987624168396 -0.26870590448379517 4.920237064361572 69 52 68
0.7941668629646301 0.8689950108528137 4.9468817710876465 95 66 84
1.0554461479187012 0.8062196969985962 4.70493745803833 148 127 144
-0.7706820964813232 0.8582253456115723 5.854066371917725 114 66 90
0.650409460067749 -0.969517707824707 5.311184883117676 94 69 91
-2.2544612884521484 -0.449002206325531 8.139913558959961 46 40 66
-1.1368727684020996 -1.1980836391448975 7.139565467834473 77 54 82
-0.9844073057174683 -0.1216239407658577 6.413980007171631 109 81 106
0.7447303533554077 0.5096672773361206 5.0471038818359375 141 118 136
-2.2610466480255127 -0.6642670035362244 8.167311668395996 136 123 141
-2.0911295413970947 -0.29622793197631836 7.964194297790527 127 107 132
-2.2642836570739746 0.8529114723205566 8.00894546508789 67 57 82
-1.5893635749816895 -1.125751256942749 7.5774006843566895 141 126 147
0.7823312878608704 -0.49249714612960815 5.12687873840332 86 63 81
-1.3462674617767334 -0.969693124294281 7.3131256103515625 91 62 80
-1.0561221837997437 0.19248875975608826 6.650592803955078 56 30 39
0.9650623798370361 0.7046463489532471 4.786334991455078 133 115 127
-0.5839016437530518 -0.9006193280220032 5.911375999450684 51 27 40
-1.9395637512207031 -0.47172245383262634 7.84031867980957 65 52 69
-1.0641460418701172 0.10309245437383652 6.490674018859863 51 21 31
0.1647898256778717 -1.3290265798568726 5.838144779205322 116 103 120
-1.627943515777588 1.159814476966858 5.120209217071533 105 52 70
0.33277347683906555 -1.360349178314209 5.687380790710449 83 64 92
-1.8867071866989136 -0.8983364701271057 7.853271484375 116 104 126
1.2005231380462646 -1.7512779235839844 4.84255313873291 95 74 105
0.20510371029376984 -1.3788926601409912 5.809939861297607 82 63 82
-1.70623779296875 0.7740892171859741 6.93537712097168 89 59 61
-1.7732958793640137 1.0358762741088867 5.280112266540527 82 45 62
0.14301858842372894 0.6036400198936462 4.9518585205078125 139 96 113
0.8751372694969177 -0.3919459581375122 5.0175089836120605 79 57 80
-1.9244312047958374 0.07670574635267258 7.758664608001709 50 38 50
-1.0326623916625977 0.09967277944087982 6.460367202758789 52 25 34
0.8179851174354553 0.77646803855896 4.946627140045166 120 92 106
0.7701191902160645 0.18001079559326172 5.074704170227051 75 54 73
0.7614294290542603 -1.4936035871505737 5.249958515167236 139 117 138
-2.2620248794555664 0.5680105090141296 8.054919242858887 54 46 69
0.8816304206848145 1.051841378211975 4.836855411529541 91 68 86
0.9772404432296753 -0.008382259868085384 4.870662212371826 55 41 64
1.0166170597076416 0.8982877731323242 4.7230448722839355 142 124 138
-1.393699049949646 -1.165698528289795 7.395737648010254 53 33 45
-0.9669351577758789 0.4277752935886383 6.358745574951172 132 79 89
0.887008786201477 -1.3033615350723267 5.112605571746826 99 72 103
0.7009924054145813 -0.7792191505432129 5.260914325714111 86 72 95
-0.6556199789047241 0.7926520705223083 5.745978355407715 81 49 64
0.7105620503425598 0.469247430562973 5.090282917022705 90 67 77
0.7069178223609924 -1.1482688188552856 5.272195816040039 131 113 135
1.169987440109253 1.0196490287780762 4.553709030151367 100 75 96
-1.2406953573226929 0.859174370765686 6.322882175445557 94 51 68
-1.0110514163970947 0.416744202375412 6.4028849601745605 96 43 51
-2.0368261337280273 0.01856415905058384 7.886294841766357 65 51 77
1.088909387588501 -0.8395105004310608 4.859930515289307 140 125 146
0.759613037109375 -1.1870701313018799 5.232208251953125 92 72 97
-2.1424505710601807 0.11909762769937515 7.974122047424316 120 105 128
-1.8520668745040894 1.1108345985412598 7.584624767303467 54 42 52
-2.3808681964874268 1.0660467147827148 8.09188461303711 76 68 89
-0.8498302698135376 0.7505708932876587 5.947253704071045 91 50 66
-1.1901963949203491 0.1963481307029724 6.7581892013549805 97 48 54
-1.0876902341842651 0.34181782603263855 6.661928653717041 56 24 35
1.0270326137542725 0.6466694474220276 4.754960536956787 133 120 140
-1.8280225992202759 -0.34767866134643555 7.727128028869629 65 52 72
0.44948604702949524 -0.7228608131408691 5.496259689331055 147 133 159
-0.4224063754081726 0.19539141654968262 5.835221290588379 57 24 33
0.6512265801429749 0.153498113155365 5.187607765197754 88 63 85
0.5923343896865845 -0.7454615831375122 5.330010890960693 142 127 148
0.6512265801429749 0.153498113155365 5.187607765197754 88 63 85
-1.6123780012130737 1.0961486101150513 5.11054801940918 91 39 52
0.7909523248672485 0.8806036710739136 4.950652599334717 137 123 140
-0.20262937247753143 0.7586040496826172 5.2957940101623535 84 40 57
0.7194714546203613 -0.1728217452764511 5.148827075958252 82 57 79
-1.2081986665725708 -1.1964668035507202 7.215126037597656 87 62 84
0.9245101809501648 -1.2066320180892944 5.053562164306641 76 64 84
1.008671522140503 0.8686771392822266 4.743131637573242 91 69 92
-0.025530142709612846 -0.016809584572911263 5.6326799392700195 61 35 44
-0.8563753962516785 0.33246806263923645 5.984635829925537 197 191 177
-1.3846839666366577 -1.0604684352874756 7.369966506958008 82 67 90
1.1647260189056396 0.17654219269752502 4.657519340515137 79 57 80
-2.3548548221588135 0.7241066694259644 8.104920387268066 82 73 92
-1.2460960149765015 -1.2022470235824585 7.261105537414551 140 122 146
-0.8670979142189026 -0.06406734138727188 6.299692153930664 170 151 136
0.7240981459617615 -1.463680624961853 5.28040075302124 105 72 99
-0.4869605004787445 0.788852334022522 5.581483840942383 76 42 56
-0.22118999063968658 0.4220251142978668 5.786257266998291 73 33 44
0.30266010761260986 -0.7546091079711914 5.6467766761779785 142 129 155
-1.8552056550979614 -0.30165940523147583 7.749943733215332 134 115 134
0.1647898256778717 -1.3290265798568726 5.838144779205322 116 103 120
-2.2650442123413086 -0.2787308394908905 8.128605842590332 84 64 89
-1.8181684017181396 0.38646793365478516 7.639911651611328 114 101 127
-1.741735577583313 0.8186448216438293 7.503572463989258 112 95 111
-1.7859752178192139 0.015157844871282578 7.635857105255127 117 108 125
0.9888311624526978 -1.4388350248336792 5.032650947570801 46 39 55
-1.7883855104446411 0.3686327636241913 7.619868755340576 32 23 28
-0.6651986837387085 0.8087296485900879 5.753972053527832 92 51 67
0.38984838128089905 -1.3734413385391235 5.626052379608154 138 130 154
-1.8821702003479004 1.4685115814208984 7.56749153137207 46 37 54
0.9587092399597168 -1.4055821895599365 5.046227931976318 79 62 94
0.39853808283805847 -1.3882678747177124 5.629891395568848 77 57 84
-0.8725873827934265 0.24734605848789215 6.044577598571777 139 125 122
-2.2650442123413086 -0.2787308394908905 8.128605842590332 84 64 89
0.9715253710746765 -0.4509009122848511 4.941415786743164 77 53 67
-2.2039661407470703 0.17178066074848175 8.017603874206543 82 69 87
-1.7664079666137695 -0.3218768537044525 7.66025972366333 141 123 135
0.9677355289459229 -1.4503265619277954 5.010825157165527 138 115 135
-1.2664846181869507 0.32224032282829285 6.7510857582092285 129 76 84
0.3576204478740692 -1.4953097105026245 5.667904376983643 109 83 108
1.026564359664917 -1.4865862131118774 4.9817891120910645 102 74 97
1.161885142326355 0.20507706701755524 4.6543989181518555 87 68 87
1.3103299140930176 0.07629021257162094 4.506353855133057 145 124 143
1.1551051139831543 -0.1145746037364006 4.695856094360352 84 65 87
-1.771566390991211 1.4251196384429932 6.7613725662231445 27 26 24
1.147383451461792 0.17228561639785767 4.689504623413086 134 119 140
-2.1987524032592773 -0.1772977113723755 8.048881530761719 72 56 85
-1.5805720090866089 0.7738248109817505 6.664809226989746 142 95 115
-0.5485361814498901 -0.17972835898399353 5.971584320068359 108 79 99
1.272547721862793 0.658219039440155 4.479243755340576 106 77 95
-0.6731728911399841 -1.2654709815979004 5.993647575378418 54 25 27
-1.5782687664031982 0.9175960421562195 6.641078472137451 61 42 46
1.3216782808303833 -1.2990038394927979 4.660120487213135 155 133 154
1.1970776319503784 1.1350058317184448 4.520386219024658 115 112 131
0.9407874345779419 0.8030399084091187 4.818304538726807 89 74 93
0.24149134755134583 -1.484833002090454 5.775149345397949 106 76 104
-1.6750801801681519 -0.5038869976997375 7.596048831939697 61 47 62
-0.8719452023506165 -0.05407605692744255 6.311000823974609 89 49 58
-2.1745827198028564 0.19018565118312836 8.003496170043945 65 53 73
-2.0470454692840576 1.3848923444747925 5.440317153930664 66 37 42
-2.3774828910827637 -1.0548791885375977 8.327354431152344 95 70 92
0.1290791630744934 -1.6118766069412231 5.913665294647217 92 67 86
-0.46504664421081543 0.6740360260009766 5.5729475021362305 65 45 54
-1.2470179796218872 1.0961084365844727 4.746273040771484 94 46 58
-2.3274285793304443 -0.42433401942253113 8.218416213989258 72 58 71
1.1025499105453491 0.4113066792488098 4.681880950927734 147 123 137
-0.16934150457382202 -0.3996407091617584 5.780496120452881 124 76 88
-1.8032547235488892 -0.9035712480545044 7.7613749504089355 135 128 144
-0.8478230834007263 0.24803975224494934 6.025550365447998 123 112 118
-1.7473349571228027 0.8892734050750732 6.823943138122559 44 42 47
-2.2627995014190674 -0.5728837847709656 8.15439224243164 66 51 72
-2.0534956455230713 0.8983473181724548 7.813107967376709 53 44 63
-1.187347173690796 -0.3214961886405945 6.800651550292969 70 33 41
0.26393553614616394 -1.1464895009994507 5.727163314819336 79 54 76
-0.7567115426063538 -0.6961156725883484 6.26186466217041 73 37 37
1.0536094903945923 1.1718238592147827 4.646681785583496 92 67 88
1.0408912897109985 0.41820675134658813 4.756434917449951 102 74 88
0.956746518611908 -0.018367096781730652 4.8794684410095215 126 107 127
1.1468281745910645 -0.21184983849525452 4.721496105194092 90 67 95
-2.3466482162475586 1.0456463098526 8.048240661621094 128 120 144
0.19312310218811035 0.10171770304441452 5.240423679351807 74 32 34
0.6919411420822144 -1.412771463394165 5.3250627517700195 96 72 96
-0.9524823427200317 0.42002055048942566 6.344834804534912 56 22 36
0.9034938216209412 0.9730904698371887 4.826226234436035 153 135 157
-2.341675043106079 0.11156649887561798 8.1664457321167 75 60 89
0.4092041850090027 -0.9016222953796387 5.5450897216796875 99 67 90
-1.0754896402359009 0.3197630047798157 6.6463541984558105 47 24 32
-0.7304819226264954 0.8002215027809143 5.799229145050049 78 47 63
-2.1648709774017334 0.18682125210762024 7.97732400894165 59 45 62
0.25933802127838135 -0.7169808745384216 5.6778669357299805 98 70 95
0.7366044521331787 0.6521508693695068 5.054453372955322 124 115 134
-1.9198817014694214 -0.6141579747200012 7.825638771057129 86 64 77
-1.0255519151687622 0.25906625390052795 6.441896438598633 85 48 65
-2.0545902252197266 1.008349061012268 7.802868843078613 49 47 61
-2.117596387863159 0.8329190015792847 7.8522491455078125 23 31 50
-1.9244543313980103 0.811481237411499 7.696091651916504 122 112 136
0.8390613198280334 0.3771352469921112 4.964623928070068 144 123 140
-1.2283830642700195 0.19910748302936554 6.784421920776367 109 60 64
1.029599666595459 -0.8345636129379272 4.930320739746094 131 119 139
-2.3770787715911865 1.3280876874923706 8.058969497680664 110 106 131
-1.0612423419952393 0.43349629640579224 6.452578544616699 58 25 36
-2.0052387714385986 0.38412797451019287 7.806933403015137 118 105 131
0.46365246176719666 -0.883568286895752 5.485941410064697 98 73 95
0.7807276844978333 -1.3783531188964844 5.225127696990967 94 81 101
-1.843902349472046 0.9013718366622925 6.90870475769043 128 78 89
-0.5852729082107544 -0.8616380095481873 5.935284614562988 68 33 39
-1.0156761407852173 0.08612209558486938 6.437314033508301 79 34 39
-1.7892000675201416 -0.8971044421195984 7.749332427978516 68 51 70
0.6321602463722229 -0.9685482978820801 5.33683967590332 94 72 93
-2.294889211654663 1.3202012777328491 7.9821600914001465 126 114 134
-0.47820186614990234 -0.7727721929550171 5.973031997680664 165 112 130
0.6850256323814392 0.5039530396461487 5.103793144226074 100 72 95
-1.6926391124725342 -0.7007892727851868 7.6380085945129395 64 52 74
0.7514036297798157 0.40072962641716003 5.048157215118408 141 123 145
-2.2379865646362305 0.5686379075050354 8.032600402832031 76 71 91
1.260872721672058 1.410388708114624 4.267292022705078 116 127 145
-1.6903306245803833 0.13811460137367249 7.524196624755859 67 46 63
0.7684198021888733 -0.44025444984436035 5.1341023445129395 75 67 80
-2.1648709774017334 0.18682125210762024 7.97732400894165 59 45 62
0.7050928473472595 -0.8347191214561462 5.249057769775391 73 54 74
0.7347803711891174 0.6169514060020447 5.039608955383301 137 110 117
0.7399985194206238 -0.24060481786727905 5.1560378074646 57 40 46
-1.4558037519454956 -0.491566926240921 7.381854057312012 143 119 135
0.30801570415496826 -1.4267809391021729 5.702052593231201 102 70 91
-0.45796677470207214 0.20905950665473938 5.878553867340088 68 38 50
-1.593974232673645 0.5366438031196594 7.048772811889648 132 87 107
-0.18118707835674286 0.14602552354335785 5.6497087478637695 101 48 66
-1.8496172428131104 -0.937740683555603 7.8057732582092285 42 29 46
-1.3197646141052246 1.068361759185791 4.823949337005615 81 50 68
-0.9572513103485107 0.0898454561829567 6.380941390991211 52 26 35
-2.355808734893799 0.8735553026199341 8.095803260803223 130 124 150
1.2036821842193604 1.2717301845550537 4.3459367752075195 99 93 131
-1.915855050086975 0.798575222492218 7.68297815322876 55 42 59
1.0792127847671509 -0.4403308629989624 4.805305480957031 128 112 138
-0.5290305018424988 0.04771493375301361 5.953866004943848 133 77 88
-0.27040067315101624 0.6659820675849915 5.356186866760254 82 46 58
-1.008246898651123 -0.8810567855834961 6.3520684242248535 46 23 31
-0.7735084891319275 -0.13424912095069885 6.179124355316162 225 214 196
0.37165722250938416 -0.7041442394256592 5.562675476074219 91 65 92
-1.9242125749588013 0.6813532710075378 7.700596809387207 48 37 51
0.7692847847938538 0.2304626852273941 5.060196876525879 93 69 93
-0.774901807308197 0.06366784125566483 6.104716777801514 183 165 145
-0.8745798468589783 -0.4693560302257538 6.355684280395508 58 22 32
-0.08736760914325714 0.6389778852462769 5.184473991394043 147 99 115
0.8559818267822266 -0.6147562861442566 5.076189041137695 78 55 73
-1.5682204961776733 -0.6496052742004395 7.495680809020996 134 116 132
-2.3658320903778076 1.3575717210769653 8.057815551757812 127 110 128
-2.3386964797973633 1.6171456575393677 7.995426177978516 75 63 77
-0.524183452129364 0.3740820288658142 5.917226314544678 138 85 95
-0.1715957671403885 -0.422149658203125 5.786107540130615 131 90 106
-1.3950101137161255 0.5679934024810791 6.938523292541504 53 23 33
0.6850256323814392 0.5039530396461487 5.103793144226074 100 72 95
-1.1336649656295776 -1.1390228271484375 7.1148152351379395 59 43 69
-1.1557244062423706 0.34580615162849426 6.713027477264404 49 24 30
-1.7194989919662476 0.718052089214325 7.490075588226318 37 27 36
-0.827777087688446 -1.081376075744629 6.23046350479126 76 40 54
-1.8968828916549683 1.4069420099258423 7.590510845184326 61 45 56
-1.1225887537002563 -1.1338204145431519 7.112593173980713 113 98 117
-1.745721459388733 1.4615914821624756 4.928932189941406 238 241 255
0.9463428258895874 0.6823731660842896 4.833444595336914 144 121 137
0.29253774881362915 -0.7259640097618103 5.656667232513428 83 56 75
0.942923903465271 -0.019639790058135986 4.907353401184082 128 107 126
-2.19152569770813 1.7082428932189941 7.721917629241943 54 53 58
0.9417471289634705 -0.44398924708366394 4.966099262237549 92 64 76
-2.360629081726074 1.0447887182235718 8.077948570251465 137 124 154
-0.7864235639572144 0.050215743482112885 6.112161159515381 218 207 185
-1.5776327848434448 -0.5974282622337341 7.502564907073975 123 105 121
-0.46677300333976746 -0.17347538471221924 5.887655735015869 125 86 105
-1.2277618646621704 0.006267079617828131 6.830476760864258 55 28 35
-0.5707322955131531 -0.9087870717048645 5.900071620941162 143 100 117
-1.1157084703445435 -0.8338653445243835 6.447835922241211 126 89 106
-1.8219382762908936 -1.1156336069107056 7.816002368927002 71 51 60
-0.9015429615974426 -0.3971938192844391 6.378168106079102 47 18 22
-0.8159856200218201 0.29473698139190674 5.986696243286133 139 131 129
0.23964864015579224 -1.3669304847717285 5.7739973068237305 103 71 86
0.46751868724823 -0.7595320343971252 5.480820178985596 143 129 154
-1.7194989919662476 0.718052089214325 7.490075588226318 37 27 36
-1.8889421224594116 -0.8880758881568909 7.865553379058838 69 52 71
0.6203901171684265 -1.59865140914917 5.422410011291504 107 83 107
0.41958341002464294 -1.1782132387161255 5.571776390075684 92 72 100
-2.06469464302063 1.7422083616256714 7.56456995010376 23 23 31
0.8781493306159973 1.2973966598510742 4.677351474761963 79 67 89
-2.1389544010162354 1.6159231662750244 7.791893482208252 131 125 137
-0.11497334390878677 0.07755251228809357 5.688119411468506 95 43 56
0.6005313992500305 -0.9583624601364136 5.3758344650268555 143 125 141
0.388152539730072 -0.6756327748298645 5.54690408706665 100 84 110
-0.17262056469917297 -0.555202305316925 5.801718711853027 122 85 103
-1.2544670104980469 1.1078975200653076 4.752095699310303 144 93 110
0.13152283430099487 0.6996322274208069 4.957280158996582 82 49 60
-2.138759136199951 1.5021488666534424 7.8250956535339355 117 118 138
1.1332533359527588 -0.23510265350341797 4.740212440490723 144 127 143
0.6364864110946655 -0.6511697769165039 5.295756816864014 85 63 84
-1.6790974140167236 0.7988747358322144 6.765683650970459 135 91 108
0.2998858392238617 -1.1509593725204468 5.68966007232666 87 62 83
0.8544996380805969 0.45029377937316895 4.924863815307617 127 109 125
0.19878867268562317 -1.4250165224075317 5.821048736572266 99 75 101
-1.679530143737793 0.8149991631507874 6.761950969696045 140 91 112
1.1484802961349487 -1.1485438346862793 4.814311981201172 104 78 105
-1.8046120405197144 1.5803266763687134 7.468302249908447 45 47 60
-1.434171438217163 0.8185474276542664 6.521420001983643 85 44 58
0.8849573731422424 -0.6100505590438843 5.040253162384033 72 54 70
-1.2478612661361694 0.29525208473205566 6.731829643249512 79 37 47
-0.7864235639572144 0.050215743482112885 6.112161159515381 218 207 185
-0.45058348774909973 -0.12390775978565216 5.889560699462891 137 85 98
-0.6362655758857727 -0.9120929837226868 5.968088150024414 80 28 50
-1.978135347366333 -1.1122212409973145 7.948423862457275 78 55 71
-1.8927853107452393 0.8343537449836731 6.956264019012451 45 30 37
-0.9077212810516357 0.34843990206718445 6.0967278480529785 135 118 92
-0.1886507123708725 0.17714516818523407 5.658575534820557 146 99 109
0.880991518497467 -1.0305233001708984 5.088425159454346 78 65 85
-1.1789801120758057 0.7905590534210205 6.267906665802002 79 41 54
-1.144523024559021 -1.2017399072647095 7.15818452835083 78 54 78
-1.2767150402069092 -1.1640207767486572 7.2573137283325195 143 126 144
0.40271931886672974 -0.7035840153694153 5.537440776824951 150 126 148
-0.20050622522830963 0.14286094903945923 5.718010902404785 145 97 111
-0.5154886245727539 0.21389234066009521 5.926766395568848 94 51 68
-0.7436140775680542 -0.2548491656780243 6.209209442138672 153 131 107
-1.3104292154312134 0.3664199113845825 6.881014823913574 57 30 39
-1.8570297956466675 -1.0945746898651123 7.832663536071777 113 97 108
-1.32139253616333 1.1097396612167358 4.821075916290283 73 43 55
-0.6534469127655029 0.8017709255218506 5.746083736419678 101 70 85
-0.14659075438976288 0.6078406572341919 5.250460624694824 111 74 92
0.9360570907592773 0.9449609518051147 4.803178787231445 89 72 91
-2.1177256107330322 -0.31469210982322693 7.984286785125732 68 50 76
-0.7164494395256042 -0.6381664872169495 6.224248886108398 84 41 51
0.9724041819572449 0.16987372934818268 4.871918678283691 91 75 102
-1.8722290992736816 0.8738774657249451 6.939359188079834 116 110 124
0.20174053311347961 -1.4979113340377808 5.8253865242004395 95 72 98
-0.289991557598114 0.689868152141571 5.3909993171691895 144 96 112
-0.4269101321697235 -0.12482156604528427 5.8688740730285645 57 25 36
-1.4568257331848145 -0.17008689045906067 7.3400421142578125 62 48 65
-0.8221819400787354 -0.24835287034511566 6.328850269317627 42 17 21
-0.8286327123641968 -0.6780086159706116 6.329127311706543 70 39 47
-0.6800661087036133 0.14041665196418762 6.065202236175537 81 42 43
-1.8226587772369385 -0.9301130175590515 7.785609722137451 131 104 123
-0.8640716075897217 0.006317185703665018 6.285414218902588 154 133 114
-0.7235673069953918 -0.1295006275177002 6.169915676116943 89 46 53
1.2203279733657837 0.7711317539215088 4.515467643737793 152 124 136
0.7564163208007812 0.3143480718135834 5.066852569580078 85 69 96
-1.6311923265457153 0.554487943649292 7.005374908447266 100 58 80
-2.0214645862579346 1.2056416273117065 5.508360862731934 97 50 68
-0.4068962037563324 0.6190859079360962 5.617801189422607 129 73 86
1.1548734903335571 -0.14267949759960175 4.707929611206055 89 67 88
0.035249076783657074 0.5760869979858398 5.198879241943359 96 66 68
-0.8342353701591492 -0.23343385756015778 6.339371204376221 47 21 22
-1.7870174646377563 1.573379397392273 7.448601245880127 37 42 48
1.0457063913345337 -0.8173183798789978 4.903403282165527 80 58 81
-1.9358352422714233 0.8796380758285522 7.709320068359375 57 44 53
-2.2447829246520996 -0.9961534738540649 8.192051887512207 81 61 72
0.7214776277542114 -1.6218451261520386 5.327526569366455 131 121 145
0.7434241771697998 0.6054497361183167 5.03306770324707 132 108 122
-1.8548215627670288 -1.0846222639083862 7.84831428527832 53 40 57
-1.187347173690796 -0.3214961886405945 6.800651550292969 70 33 41
0.370061457157135 -0.9577720761299133 5.604325771331787 110 85 114
0.7485281229019165 -1.1636062860488892 5.2359538078308105 144 125 144
-0.7408294081687927 0.14061136543750763 6.1769633293151855 117 91 58
-1.2718371152877808 0.26878100633621216 6.8296308517456055 66 35 43
-0.4942435026168823 -0.9253867268562317 5.849616050720215 153 110 130
-2.0742666721343994 1.3436459302902222 5.53227424621582 168 120 142
-1.9175113439559937 0.7893326282501221 7.678249359130859 110 97 115
-0.48482993245124817 0.4563971161842346 5.869050025939941 142 85 100
1.1451886892318726 -0.09619946032762527 4.705801010131836 139 122 141
1.1323858499526978 0.10672275722026825 4.690069675445557 146 125 142
-0.5456512570381165 -0.8153231143951416 5.906473636627197 79 36 43
0.7083452939987183 -1.1651523113250732 5.2646098136901855 96 71 90
-1.5091378688812256 -0.7688708305358887 7.458771705627441 58 44 70
-0.5120348930358887 -0.15183025598526 5.924010276794434 119 90 112
-1.626387357711792 0.9239931106567383 6.6973700523376465 61 38 46
0.9749820232391357 -0.03690418601036072 4.9000325202941895 69 47 59
1.003587007522583 1.1304147243499756 4.720611095428467 129 114 137
0.6150602102279663 -1.568466067314148 5.415937423706055 90 70 95
-0.6817814111709595 -0.07885663956403732 6.165075302124023 194 187 161
1.0497456789016724 -1.4489953517913818 4.9588518142700195 86 65 96
-0.13565748929977417 0.22659160196781158 5.716124057769775 87 39 37
-1.1326369047164917 -1.1262062788009644 7.11555290222168 45 31 56
-0.9869223237037659 0.011738638393580914 6.424097537994385 77 46 62
-0.6034180521965027 -0.7821606993675232 5.970869541168213 141 92 111
-0.1357908546924591 -0.04875440150499344 5.736937999725342 85 36 40
0.6510905623435974 -0.6391599178314209 5.279332637786865 137 116 131
1.1284736394882202 -0.18841314315795898 4.73220682144165 148 131 147
-0.7309888005256653 -1.0948095321655273 6.138237476348877 82 43 61
0.8134347796440125 -1.5132231712341309 5.2053022384643555 90 69 100
0.9269371032714844 -0.36266574263572693 4.961756229400635 90 64 77
-1.8202323913574219 -1.107473611831665 7.817633152008057 103 89 102
-2.332185745239258 0.08207792043685913 8.165267944335938 66 64 88
-1.0344828367233276 0.19714239239692688 6.4409379959106445 60 34 43
-0.6964839696884155 -0.053890544921159744 6.172792911529541 144 119 97
1.1424858570098877 -0.07412191480398178 4.712229251861572 75 54 71
-1.9098107814788818 0.08769913762807846 7.7629241943359375 126 111 134
-0.4669622480869293 -0.11782655864953995 5.906952857971191 69 36 43
1.0928329229354858 1.1681303977966309 4.610104560852051 94 72 95
-1.3778263330459595 -0.9541276097297668 7.347522735595703 130 106 128
-0.12814250588417053 0.7358294129371643 5.214049816131592 134 88 98
1.1932443380355835 -1.4638553857803345 4.819808006286621 99 80 99
-1.7723788022994995 0.7626422643661499 7.531612873077393 54 45 48
1.1491029262542725 -1.1170028448104858 4.803762912750244 114 90 114
-2.0926311016082764 1.0253210067749023 7.822945594787598 45 34 48
-2.155658483505249 1.6179311275482178 7.807202339172363 125 117 132
-0.5665126442909241 0.23652924597263336 5.97109842300415 143 87 100
0.6510398387908936 -0.9831641912460327 5.318758010864258 132 120 140
-2.0082223415374756 1.1401101350784302 5.5001630783081055 83 37 48
-1.8496172428131104 -0.937740683555603 7.8057732582092285 42 29 46
-0.8596397638320923 0.4063824415206909 6.105686187744141 116 102 76
0.9054350256919861 -0.4474692940711975 4.990911483764648 103 76 85
-0.6742525100708008 -0.6981984972953796 6.178760051727295 65 35 45
-1.8226587772369385 -0.9301130175590515 7.785609722137451 131 104 123
-1.2036031484603882 0.05441533774137497 6.797266483306885 137 83 97
-1.0819380283355713 0.49666038155555725 6.619067192077637 53 30 38
-2.0037667751312256 1.182342767715454 5.495875358581543 93 49 64
-2.132685422897339 0.8925012946128845 5.582686901092529 93 48 53
-1.2277618646621704 0.006267079617828131 6.830476760864258 55 28 35
1.0671769380569458 -0.874508261680603 4.876274585723877 100 68 91
-0.11173486709594727 -0.03102334402501583 5.700895309448242 74 44 56
-1.8299185037612915 -0.1302884817123413 7.70612907409668 61 47 62
-1.0588985681533813 0.702089250087738 6.25973653793335 78 46 51
-1.4711451530456543 1.2119876146316528 4.958171844482422 95 44 63
0.7132695913314819 -0.20446325838565826 5.150489330291748 82 63 85
-1.6389391422271729 0.2124945968389511 7.085379123687744 36 25 29
0.9339059591293335 0.19160327315330505 4.893400192260742 69 46 66
-0.5197173953056335 -1.1065150499343872 5.937649726867676 141 92 113
-1.2102161645889282 1.2439223527908325 4.683440208435059 190 149 179
-0.5758861899375916 -0.9216299057006836 5.906094074249268 151 100 115
-0.8617520332336426 0.010253893211483955 6.2632365226745605 154 131 99
-1.6504844427108765 -0.6706249117851257 7.586716175079346 141 126 147
0.6829964518547058 -1.4403878450393677 5.317200660705566 98 69 97
-0.9001445174217224 0.40611714124679565 6.261103630065918 69 44 40
-1.32139253616333 1.1097396612167358 4.821075916290283 73 43 55
0.7392435669898987 0.634309709072113 5.049154758453369 75 52 62
-1.5439460277557373 0.2575668692588806 7.323959827423096 89 46 53
-1.5677913427352905 -1.1016491651535034 7.5578179359436035 85 70 89
0.798014223575592 -1.5452903509140015 5.224185943603516 88 67 98
-2.10429310798645 1.633150339126587 7.710203170776367 83 74 95
-0.8981752991676331 0.4292759597301483 6.3073625564575195 27 16 20
-1.9741168022155762 -0.27690330147743225 7.84480619430542 139 115 139
-0.6903716921806335 -0.08259330689907074 6.1804986000061035 208 192 166
-0.7468481063842773 -0.01880456507205963 6.166133880615234 107 67 42
-1.0588985681533813 0.702089250087738 6.25973653793335 78 46 51
-2.3205254077911377 0.13374024629592896 8.156442642211914 129 123 151
-1.8629769086837769 -0.8645222783088684 7.809016704559326 114 97 107
-2.0651605129241943 1.3121554851531982 5.76827335357666 59 38 47
-1.5847539901733398 0.7620381712913513 6.854996681213379 83 62 69
-0.5969193577766418 -0.809282660484314 5.956624984741211 79 38 44
0.8393468856811523 0.5376242399215698 4.9204421043396 87 130 224
0.13793189823627472 0.3444032073020935 5.269519805908203 160 113 131
0.3513471484184265 -0.3720284402370453 5.548325538635254 115 73 93
-0.37732425332069397 0.6945036053657532 5.477947235107422 82 50 63
-1.462433934211731 -0.86274653673172 7.417036056518555 79 58 77
0.09799308329820633 1.152081847190857 4.92036771774292 64 30 44
-0.8580261468887329 0.4273403286933899 6.1218037605285645 42 25 31
-2.1306543350219727 0.10766524076461792 7.961582183837891 47 35 47
-1.1938589811325073 -0.4214093089103699 6.804429531097412 118 76 90
-1.7024880647659302 -0.8240639567375183 7.661083698272705 49 40 59
-1.1883599758148193 -0.47387564182281494 6.815441131591797 76 35 43
1.292787790298462 1.324386715888977 4.248558044433594 178 194 254
1.1546889543533325 -1.0395843982696533 4.800808429718018 77 67 92
0.6546825766563416 -0.5913333892822266 5.299983024597168 122 119 136
-2.1522083282470703 -0.6748550534248352 8.053671836853027 116 87 105
-0.7272347211837769 0.06467341631650925 6.093277454376221 164 148 125
-0.2637208104133606 -0.7533536553382874 5.905012607574463 109 68 76
1.1995282173156738 1.293283462524414 4.347884654998779 182 202 255
0.2029055655002594 -1.5334463119506836 5.836559772491455 69 54 77
0.9563245177268982 -1.3241697549819946 5.0485639572143555 83 70 98
0.20749299228191376 0.07503700256347656 5.220250606536865 61 31 41
0.38686850666999817 -1.565455675125122 5.65780782699585 83 67 94
-1.563820481300354 -0.6608089208602905 7.500164031982422 80 57 75
-0.8202199339866638 0.23610685765743256 6.064024925231934 193 188 182
0.7129464745521545 -0.8073660135269165 5.242900848388672 87 70 88
0.06503663212060928 0.5068160891532898 5.232782363891602 167 116 133
-1.5806119441986084 -1.075632929801941 7.556365966796875 141 125 136
-1.008246898651123 -0.8810567855834961 6.3520684242248535 46 23 31
-0.5896843075752258 0.652791440486908 5.792438983917236 122 69 87
-2.137911319732666 0.7769185304641724 7.887866020202637 172 190 255
0.7085539698600769 -0.12995882332324982 5.151600360870361 150 132 146
-0.8487282395362854 -0.0051202611066401005 6.156813144683838 157 136 117
-1.9091891050338745 0.33449772000312805 7.7132487297058105 126 111 134
0.9502803087234497 -1.3134225606918335 5.055637359619141 118 110 133
-1.070566177368164 -0.8737154603004456 6.430392742156982 73 37 47
-2.0092906951904297 1.4413560628890991 4.7571306228637695 129 140 160
1.0509861707687378 1.1912493705749512 4.645315647125244 82 62 87
-1.9085023403167725 0.6585097312927246 7.680444717407227 112 103 124
0.9883420467376709 -0.24525053799152374 4.892936706542969 144 127 146
0.7551257014274597 0.16989681124687195 5.0657958984375 138 124 141
-1.2386987209320068 1.2973272800445557 4.6418585777282715 78 44 60
-0.7468481063842773 -0.01880456507205963 6.166133880615234 107 67 42
0.6195814609527588 0.44739797711372375 5.178515434265137 85 62 82
-1.7810306549072266 0.2731887698173523 7.621790409088135 58 42 55
0.7059381008148193 0.5080546140670776 5.080596923828125 91 68 88
0.1701217144727707 -1.3283480405807495 5.837798595428467 96 92 107
-0.1853785365819931 0.4068547785282135 5.752775192260742 75 37 48
0.6381587386131287 0.1165933758020401 5.197873592376709 144 123 138
-0.8591291308403015 0.0240694060921669 6.279283046722412 153 132 113
1.0601036548614502 -0.8140670657157898 4.880021572113037 93 64 86
0.7684198021888733 -0.44025444984436035 5.1341023445129395 75 67 80
-1.6222862005233765 -0.8522331714630127 7.576557159423828 78 63 82
-0.7164494395256042 -0.6381664872169495 6.224248886108398 84 41 51
0.9460464715957642 0.6991082429885864 4.816435813903809 146 123 139
-1.2258381843566895 1.2608516216278076 4.686316013336182 114 79 99
-1.795554757118225 1.1112456321716309 7.538414478302002 27 25 28
-1.5753841400146484 -0.5153172612190247 7.496423244476318 53 44 65
-2.32181978225708 0.09556363523006439 8.166972160339355 114 110 135
0.006026292219758034 -0.27745482325553894 5.479705810546875 65 34 40
0.07977182418107986 0.3920673727989197 5.487658500671387 72 34 49
-0.5758861899375916 -0.9216299057006836 5.906094074249268 151 100 115
-0.5956049561500549 -0.8361465930938721 5.9802045822143555 121 75 88
-1.1973739862442017 -0.43302175402641296 6.811568260192871 59 27 42
-1.9561471939086914 1.5063928365707397 6.917811393737793 139 100 119
-1.3410825729370117 -0.3797107934951782 6.818912982940674 138 86 98
0.7963268756866455 0.16545167565345764 5.055365562438965 142 124 148
1.3275964260101318 -1.5263887643814087 4.678014755249023 105 79 104
-1.5692898035049438 -0.6401712894439697 7.49954891204834 88 65 83
-0.8103986382484436 -0.2652066946029663 6.282785415649414 133 115 95
-0.49096471071243286 -0.9574548006057739 5.831203460693359 85 41 58
-1.019721269607544 -0.8647052645683289 6.374701976776123 142 95 113
