ply
format ascii 1.0
element vertex 714
property float x
property float y
property float z
property uchar red
property uchar green
property uchar blue
end_header
0.039063405245542526 -1.8164228200912476 5.84207010269165 84 57 72
-0.548795223236084 -0.6909775137901306 5.699478626251221 145 90 105
-1.5697622299194336 0.8570380210876465 6.53952169418335 66 41 50
1.7426315546035767 -1.5261261463165283 4.66465950012207 154 173 219
-0.4919666349887848 -1.470537543296814 5.863853931427002 144 90 109
0.6988213062286377 -1.715925931930542 5.133620262145996 124 111 138
0.19781213998794556 -1.4780499935150146 5.628252029418945 79 60 82
0.12082677334547043 -0.1011805534362793 5.031970500946045 72 34 39
0.03967751935124397 0.5489713549613953 5.05021333694458 83 54 57
-2.388767719268799 1.6774746179580688 7.822817802429199 44 37 42
-1.1477972269058228 0.5985047221183777 4.544698238372803 77 52 64
-0.5541841387748718 -0.3781823515892029 5.8750810623168945 30 11 11
-0.16845820844173431 1.2645809650421143 4.994235038757324 146 102 122
0.3716457188129425 -0.6317551732063293 5.366228103637695 95 80 103
-1.7682693004608154 0.8004820346832275 6.745497226715088 63 49 53
0.9853894114494324 0.20939131081104279 4.6291022300720215 138 115 132
0.9131955504417419 1.0896474123001099 4.602292060852051 46 33 44
1.0182864665985107 0.8723400235176086 4.553111553192139 63 53 68
-1.5578045845031738 0.5595498085021973 6.829456329345703 105 68 81
-0.7581264972686768 -1.8777705430984497 6.665388584136963 74 55 74
-2.172840118408203 -0.24540665745735168 7.93349552154541 82 64 84
0.8875623941421509 -1.1631592512130737 4.8747687339782715 68 57 69
-1.931066632270813 1.1546416282653809 5.381461143493652 88 48 65
-0.46784600615501404 -1.02751624584198 5.689238548278809 55 25 26
-1.3664181232452393 0.7782297730445862 6.3501081466674805 131 82 99
0.20523126423358917 0.6660035252571106 4.806295871734619 98 56 64
-0.21550670266151428 0.2216779887676239 5.637502193450928 62 29 38
-0.881692111492157 -0.2724738121032715 6.091436862945557 102 63 71
0.808600664138794 0.49722397327423096 4.767695903778076 82 118 206
-1.5103508234024048 0.7666128277778625 6.484465599060059 75 58 63
0.38968512415885925 -1.339837670326233 5.436321258544922 69 50 70
-1.4772287607192993 -0.15690883994102478 7.189563274383545 128 117 140
-1.0871069431304932 0.07780226320028305 6.574705123901367 62 37 47
-0.9211330413818359 -1.9740732908248901 6.830719470977783 48 35 48
-0.4919666349887848 -1.470537543296814 5.863853931427002 144 90 109
-0.7469442486763 -0.0966392457485199 5.986077785491943 170 161 139
0.9061143398284912 -1.2631977796554565 4.873249053955078 114 103 127
-2.1156392097473145 -1.6132360696792603 8.031736373901367 78 59 83
-1.8068100214004517 -0.47066518664360046 7.578896999359131 62 50 65
-1.4772957563400269 -0.8936726450920105 7.309580326080322 75 52 68
0.4062652289867401 0.6846928596496582 5.008138656616211 78 42 59
-0.6069474816322327 -0.9024662375450134 5.791817665100098 132 78 92
-1.7843255996704102 0.8044540286064148 6.769974231719971 43 33 39
-0.44652900099754333 -1.264765739440918 5.613707065582275 103 61 68
-2.4740183353424072 1.6724528074264526 7.904766082763672 26 34 53
-0.7620508670806885 -0.2410154789686203 6.117585182189941 87 64 45
0.7518212199211121 0.8333513140678406 4.827315807342529 81 62 75
-0.6791952848434448 0.019879112020134926 5.944335460662842 159 147 135
-2.743898868560791 1.4979779720306396 8.235396385192871 17 23 41
-0.6424087285995483 -0.3083861172199249 6.009695529937744 38 20 20
-0.47827479243278503 -0.7477530837059021 5.685547828674316 72 31 39
-0.8973225355148315 -1.963615894317627 6.819040298461914 120 112 135
-0.44652900099754333 -1.264765739440918 5.613707065582275 103 61 68
-0.7305290102958679 -0.28357407450675964 6.0192694664001465 57 24 28
0.4062652289867401 0.6846928596496582 5.008138656616211 78 42 59
-0.7152721285820007 -0.2838302552700043 6.023580074310303 137 115 98
0.5710358619689941 -1.7544349431991577 5.2618889808654785 79 65 88
-2.0290255546569824 0.6920249462127686 7.684406280517578 18 24 47
0.9117737412452698 0.25530770421028137 4.7128005027771 133 110 125
-0.7406707406044006 0.2704893946647644 5.822181701660156 224 221 206
-1.0838607549667358 -1.5366965532302856 6.962730884552002 84 59 81
-0.5761235952377319 -0.41240450739860535 5.892945766448975 102 64 69
1.7502920627593994 0.9705229997634888 4.43751335144043 87 98 126
-1.693414568901062 0.6988210678100586 6.8109917640686035 155 101 117
-1.0079472064971924 -0.8427413702011108 6.2187299728393555 70 33 40
-0.8362741470336914 0.716266393661499 5.808933258056641 77 43 58
-0.5527339577674866 -0.8676908612251282 5.724088668823242 52 24 31
-2.104407548904419 0.519665539264679 7.792887210845947 61 53 74
-0.18505580723285675 -0.878789484500885 5.408238410949707 55 26 31
-1.25877845287323 -1.2296949625015259 6.357021331787109 85 45 58
-0.8003734946250916 0.2063845992088318 5.866847991943359 191 188 196
-0.47827479243278503 -0.7477530837059021 5.685547828674316 72 31 39
-1.0500867366790771 -0.8064547777175903 6.2462263107299805 112 74 88
-0.15978311002254486 0.08765604346990585 5.575001239776611 98 51 58
-1.5707082748413086 -1.8095369338989258 7.488542556762695 81 61 79
-0.46784600615501404 -1.02751624584198 5.689238548278809 55 25 26
-2.649653673171997 1.671873927116394 7.819918155670166 126 134 145
-2.769967555999756 1.6839643716812134 7.99423360824585 25 33 38
-1.0023536682128906 0.25042033195495605 6.279801368713379 64 31 42
-0.9189749360084534 0.31147897243499756 6.187190532684326 62 31 37
0.7264739274978638 -1.0946985483169556 5.05208683013916 85 61 80
1.086508870124817 -0.7961419820785522 4.627747058868408 86 62 80
-0.4814118444919586 -0.9033531546592712 5.660794734954834 59 21 34
-0.9406098127365112 -0.5615958571434021 6.23458194732666 32 16 17
-0.8263362646102905 -1.3479833602905273 6.0124101638793945 143 97 115
-0.8039913177490234 0.3808966875076294 5.93087100982666 102 87 64
-0.4361293613910675 -0.12360414862632751 5.728111743927002 65 39 42
0.5756664276123047 1.1452280282974243 5.032150745391846 117 104 130
-0.8747646808624268 0.4408693313598633 6.098303318023682 69 35 35
-1.7700996398925781 0.8902795910835266 6.740621089935303 48 40 42
0.6521021723747253 -1.2415342330932617 5.142102241516113 84 73 96
-1.0886497497558594 -0.938174307346344 6.333993434906006 114 65 80
0.6339129209518433 1.0210715532302856 4.914803504943848 133 110 129
-0.1207263171672821 1.1612884998321533 5.004610061645508 56 41 46
-0.6632251143455505 0.29432082176208496 5.829003810882568 116 97 96
-0.16248655319213867 -0.8880522847175598 5.392117500305176 142 95 105
-0.7375624179840088 -1.886728048324585 6.640714645385742 69 53 72
-1.1077320575714111 -0.32147830724716187 6.587688446044922 69 29 41
-0.8150383830070496 -0.03633705899119377 6.100605487823486 147 127 112
-0.07376322150230408 0.08512476831674576 5.489935398101807 89 44 56
-0.6277437806129456 0.008218826726078987 5.9122514724731445 101 77 65
0.5144330263137817 1.2013897895812988 5.028223514556885 55 47 60
0.49539628624916077 0.5450981259346008 5.114354133605957 87 57 64
-0.5440566539764404 0.6094759702682495 5.627542495727539 113 62 72
-0.5180153846740723 -1.9303323030471802 6.297735214233398 67 34 40
-0.0880269929766655 0.0799172893166542 5.50058126449585 143 90 106
-0.18886661529541016 0.7934271693229675 5.046082496643066 142 102 113
-1.045805811882019 -0.7984283566474915 6.233948707580566 106 63 77
-2.7083194255828857 0.6130328178405762 8.328150749206543 96 110 149
0.044599879533052444 1.0889348983764648 4.839014530181885 71 41 56
-0.22895482182502747 -0.42941462993621826 5.7183098793029785 77 39 40
0.10920245200395584 -0.07802870124578476 5.027264595031738 121 70 79
-0.6695462465286255 -1.637139916419983 6.033505916595459 75 25 30
-0.9384053349494934 -1.9956132173538208 6.855068683624268 56 52 74
-1.122090458869934 0.3395277261734009 6.574428558349609 58 22 21
-0.4131629467010498 -0.8452795147895813 5.71643590927124 114 67 80
-0.20202194154262543 -1.65274977684021 6.059122085571289 131 110 134
0.9375944137573242 -0.9753724932670593 4.812382221221924 71 51 67
-0.25834208726882935 -1.9244178533554077 6.1360368728637695 76 52 69
-0.5411894917488098 0.3764132559299469 5.784597873687744 64 29 35
-1.7653381824493408 -2.0756850242614746 7.709667682647705 135 117 138
-0.4693416357040405 -1.4634443521499634 5.84938907623291 73 36 46
1.776700735092163 0.8689508438110352 4.411680698394775 160 181 225
-0.16248655319213867 -0.8880522847175598 5.392117500305176 142 95 105
-1.6381525993347168 0.8352465033531189 6.629662990570068 44 38 42
0.8409576416015625 -0.9943252205848694 4.909095287322998 68 59 76
-0.20263127982616425 1.3374817371368408 4.934220790863037 68 47 52
-1.4652348756790161 0.7216207385063171 6.703147888183594 62 42 50
-0.570980966091156 -1.596753478050232 5.992114543914795 98 46 57
-1.0914016962051392 -0.012199074029922485 6.574930667877197 56 28 35
-0.24254076182842255 1.263632893562317 4.967858791351318 153 112 135
1.0776115655899048 0.1451631337404251 4.62768030166626 140 121 137
-0.5761235952377319 -0.41240450739860535 5.892945766448975 102 64 69
-0.7862796783447266 0.37210002541542053 5.9051055908203125 83 71 57
-0.711178719997406 -0.674292266368866 6.061861991882324 63 28 28
-0.963504433631897 -0.8340572714805603 6.166658401489258 126 76 88
0.054510489106178284 0.30029964447021484 5.390774726867676 57 29 32
-0.4439692497253418 -0.8002269864082336 5.696837902069092 108 69 80
0.5892038941383362 -0.9412713050842285 5.201068878173828 56 36 47
-0.29942333698272705 0.5963600873947144 5.5364603996276855 69 48 56
-1.5938043594360352 1.4004544019699097 4.7647809982299805 89 89 135
-1.1214581727981567 0.058890897780656815 6.592705726623535 85 41 44
-1.3038884401321411 0.4207404553890228 6.671098709106445 66 26 31
-0.4926159083843231 -0.889222264289856 5.655428886413574 134 84 100
-1.580863356590271 -1.7879289388656616 7.523069381713867 72 55 63
1.7481824159622192 -0.9154127836227417 4.6099395751953125 129 144 182
-2.779898166656494 1.6715638637542725 8.001904487609863 77 84 99
-0.47208288311958313 -0.6952739357948303 5.671317100524902 143 90 105
-0.26822587847709656 0.8234983086585999 4.968317985534668 136 84 100
0.723598837852478 -1.7314995527267456 5.10899019241333 75 61 89
1.7213565111160278 -1.6039482355117798 4.697615623474121 127 137 171
0.6416885256767273 1.3837352991104126 4.718125343322754 104 114 133
-0.689006507396698 0.29809871315956116 5.823729515075684 178 167 153
-0.6668920516967773 0.2273705154657364 5.843184947967529 117 93 80
-0.986707866191864 -0.7147040963172913 6.197044372558594 127 75 93
-0.788111686706543 1.021100640296936 4.616979122161865 84 52 69
-0.4898838698863983 -0.9988372921943665 5.672367572784424 112 63 79
-0.5285637378692627 -1.0712827444076538 5.672829627990723 106 66 84
0.13338574767112732 -0.027238216251134872 5.058430194854736 109 59 68
-0.8279724717140198 0.3839212954044342 5.941116809844971 98 86 68
-1.9386721849441528 0.7956500053405762 7.583119869232178 50 44 73
-0.5375417470932007 -0.3633885979652405 5.840385437011719 121 68 79
-1.0974787473678589 -0.8064804673194885 6.313553333282471 114 66 78
-0.5007176995277405 -0.8444778919219971 5.687779426574707 65 30 32
-0.6708665490150452 0.16684725880622864 5.970546722412109 194 177 147
0.7056760787963867 -1.5533696413040161 5.114687919616699 57 46 63
-0.45328590273857117 -1.478019118309021 5.798826217651367 147 92 109
1.6736763715744019 1.202146291732788 4.266990661621094 25 22 24
-1.1595395803451538 -0.1055961325764656 6.568978786468506 56 22 23
-0.8289022445678711 0.24178557097911835 5.898122787475586 96 87 86
-1.1661155223846436 -0.9421531558036804 6.538432598114014 59 29 31
-1.6214673519134521 0.8029747009277344 6.609450817108154 47 33 41
0.6416885256767273 1.3837352991104126 4.718125343322754 104 114 133
-0.48145216703414917 -0.8758783936500549 5.658629417419434 78 36 50
-0.6818534731864929 -1.6533786058425903 6.0251545906066895 145 91 108
-0.35216736793518066 -1.9286922216415405 6.227948188781738 126 101 123
0.16860510408878326 0.0048688300885260105 5.145240306854248 36 22 23
-0.6780251264572144 0.14773070812225342 5.980200290679932 83 55 41
-0.9778294563293457 -0.795086145401001 6.168583393096924 103 61 73
0.5671627521514893 1.3529689311981201 4.294649124145508 120 128 148
-0.6873118877410889 -1.0553274154663086 5.9371113777160645 74 40 54
0.17831435799598694 -1.2971073389053345 5.636398792266846 66 51 70
-0.8955139517784119 -2.000560998916626 6.822685241699219 42 32 45
-0.548795223236084 -0.6909775137901306 5.699478626251221 145 90 105
-0.10612267255783081 -0.7162536978721619 5.471179008483887 55 24 24
-0.6791952848434448 0.019879112020134926 5.944335460662842 159 147 135
-1.4652348756790161 0.7216207385063171 6.703147888183594 62 42 50
-0.6251356601715088 0.2990892231464386 5.788358211517334 103 82 73
1.750984787940979 -1.29817795753479 4.653411388397217 144 166 208
-1.4454506635665894 0.8606133460998535 6.423757076263428 83 49 65
-0.16263563930988312 1.321357250213623 3.9398553371429443 108 119 137
0.7490660548210144 -1.144411325454712 5.002946376800537 122 100 120
-0.5680994987487793 -1.917333960533142 6.364809513092041 181 166 139
-0.605003833770752 0.10282707959413528 5.978549003601074 84 66 51
-0.5180140137672424 -1.4946907758712769 5.890172958374023 104 43 49
-0.65196692943573 0.11269582808017731 6.057941913604736 56 31 16
1.7503867149353027 0.8876774311065674 4.393065929412842 51 70 103
-1.3431659936904907 -0.7400152683258057 6.585306167602539 57 24 23
-1.693414568901062 0.6988210678100586 6.8109917640686035 155 101 117
0.9257287979125977 0.7255364060401917 4.657412052154541 119 116 137
0.2235383838415146 -0.695302426815033 5.531619071960449 73 52 71
-0.695829451084137 0.25708797574043274 5.8288798332214355 132 109 100
-2.852370023727417 1.6264859437942505 8.127365112304688 103 96 115
-0.9705625772476196 -0.7757628560066223 6.211968898773193 56 23 26
-0.6448179483413696 0.3357715904712677 5.73293399810791 106 80 75
-1.0417981147766113 -0.33490028977394104 6.433882713317871 57 27 26
-0.18662375211715698 1.25216543674469 5.0433430671691895 55 43 56
0.8410583734512329 -1.1387158632278442 4.937335014343262 63 47 66
-0.43986669182777405 -0.8707523941993713 5.699219226837158 51 19 30
-1.059550166130066 -2.007539749145508 6.982437610626221 89 66 75
0.5097002983093262 1.2252006530761719 5.006933212280273 135 119 140
1.7465659379959106 0.9006532430648804 4.4337921142578125 53 57 87
1.827091932296753 -0.6960034966468811 4.6233320236206055 159 179 218
-0.7822450995445251 0.23866379261016846 5.840601921081543 95 86 85
-1.2127047777175903 -1.9836713075637817 7.0763325691223145 127 120 147
-0.7862796783447266 0.37210002541542053 5.9051055908203125 83 71 57
1.8288830518722534 -1.6315046548843384 4.83349609375 61 58 81
0.21365351974964142 -1.4279321432113647 5.595424652099609 97 70 87
-0.6179144382476807 1.2466450929641724 4.582557678222656 91 65 79
-0.15637065470218658 0.13521337509155273 5.518282413482666 96 43 55
-1.2469887733459473 -1.9756442308425903 7.057601451873779 128 109 131
-0.850321888923645 -1.6389641761779785 6.155613422393799 157 104 121
-0.7894278168678284 -0.23849965631961823 6.1296563148498535 42 21 18
1.3367698192596436 -0.691651463508606 4.4049835205078125 135 113 129
-0.6531660556793213 0.31153830885887146 5.798899173736572 177 165 159
1.605941653251648 1.1217389106750488 4.334883689880371 27 26 37
-1.9141653776168823 -2.1142985820770264 7.877476692199707 126 114 130
0.5868409276008606 -1.738614559173584 5.2541823387146 75 55 67
-0.5992550849914551 -1.8614861965179443 6.501277923583984 129 107 129
-0.20377695560455322 -1.6293381452560425 6.052276134490967 103 67 91
-2.211200714111328 1.2091799974441528 7.815974712371826 126 121 150
-1.2557944059371948 -1.1582390069961548 6.6424336433410645 49 28 35
-0.6021899580955505 -0.30965492129325867 5.795567512512207 110 67 83
-1.9141653776168823 -2.1142985820770264 7.877476692199707 126 114 130
-0.8465028405189514 0.40337470173835754 6.107264995574951 41 21 28
-1.045805811882019 -0.7984283566474915 6.233948707580566 106 63 77
-0.5476728081703186 -1.6209075450897217 5.975654125213623 139 102 125
-2.387995719909668 -0.82035893201828 8.233664512634277 113 94 114
0.8385844826698303 -1.376307725906372 4.943901538848877 50 40 59
0.7947224974632263 -1.2893502712249756 4.9736328125 85 56 72
0.576543927192688 -0.0014620176516473293 5.077749252319336 81 56 70
0.0895947739481926 1.220588207244873 4.756559371948242 130 84 105
0.8088303208351135 0.7907897233963013 4.758650302886963 146 131 156
0.8430488705635071 0.7736577987670898 4.734198093414307 71 58 68
-2.4271156787872314 0.5441171526908875 8.08733081817627 161 178 224
1.0073730945587158 -0.05099699646234512 4.637510299682617 86 63 72
-1.8975236415863037 1.2875518798828125 5.3100481033325195 105 79 95
-1.1129720211029053 0.8399989604949951 4.602503776550293 135 87 103
1.219931721687317 0.09805165231227875 4.3897271156311035 97 74 94
0.9852578043937683 -0.26144272089004517 4.67606258392334 71 44 50
0.7134220004081726 -1.12290358543396 5.047755241394043 134 115 134
0.8337789177894592 -1.3601313829421997 4.947812080383301 132 113 135
0.5896761417388916 -0.9533556699752808 5.170668125152588 72 65 73
1.0797780752182007 0.752505362033844 4.47719669342041 137 114 130
1.0073730945587158 -0.05099699646234512 4.637510299682617 86 63 72
1.1395280361175537 0.3696318566799164 4.450885772705078 155 125 138
0.7855913639068604 -0.2330782562494278 4.8929362297058105 62 41 48
-0.44852203130722046 0.6569573283195496 5.422432899475098 140 93 111
0.5529464483261108 -0.005678367335349321 5.102566719055176 82 61 73
0.8652500510215759 1.05885910987854 4.664862632751465 130 104 120
0.8419411778450012 -1.273121953010559 4.925897598266602 134 110 134
0.8592501878738403 0.41966745257377625 4.735745429992676 129 105 117
0.8426918983459473 0.7885826230049133 4.7292327880859375 134 117 135
0.8679460287094116 0.9106245040893555 4.693424701690674 62 48 63
0.5457882285118103 -1.2525455951690674 5.237838268280029 90 60 77
0.7341272234916687 0.3543272614479065 4.86884880065918 96 69 81
-1.0259039402008057 1.245460867881775 4.535726547241211 106 60 74
0.0432308055460453 1.3454124927520752 4.738361358642578 59 48 54
0.8802415728569031 0.4123174846172333 4.710101127624512 92 68 82
0.7665393948554993 0.8283776640892029 4.796219348907471 87 61 74
0.6540164351463318 -0.9689224362373352 5.097395896911621 66 42 59
-1.6517456769943237 -0.14447399973869324 7.4083967208862305 52 38 49
0.6331941485404968 -0.9656446576118469 5.120936870574951 84 64 77
0.6463362574577332 0.2964060306549072 4.986941337585449 80 63 79
1.0256924629211426 -0.6006026864051819 4.674886226654053 57 39 48
0.6503412127494812 0.17759189009666443 4.980958461761475 140 124 146
0.7901840209960938 0.79630446434021 4.772825241088867 146 128 153
0.616229236125946 0.3015401363372803 5.0151543617248535 76 54 70
0.8481292128562927 -0.033461764454841614 4.810281753540039 87 61 78
1.039928674697876 -1.398790955543518 4.739036560058594 45 33 55
-2.4003994464874268 1.3129792213439941 8.008506774902344 104 95 114
1.0661505460739136 0.7348235249519348 4.493637561798096 77 57 72
-1.8975236415863037 1.2875518798828125 5.3100481033325195 105 79 95
0.302930623292923 -1.237607479095459 5.488951683044434 82 55 65
-1.7605608701705933 1.2725650072097778 5.169388294219971 102 76 97
0.7223254442214966 -1.4357801675796509 5.0568013191223145 133 110 131
-0.8051092624664307 0.31187278032302856 5.810656547546387 195 189 173
0.7806329727172852 -1.3684571981430054 5.0024638175964355 86 63 84
-1.6482709646224976 1.2603150606155396 5.050410270690918 108 69 89
0.6389970183372498 -1.2680504322052002 5.145903587341309 74 56 70
1.0311506986618042 0.15949493646621704 4.580536842346191 93 67 80
1.1502714157104492 1.319316029548645 4.220574855804443 158 178 245
0.08648195117712021 0.8275221586227417 4.763984680175781 44 28 25
1.0334528684616089 0.14293333888053894 4.585432529449463 145 128 144
-2.08589768409729 -0.8140485882759094 7.923854351043701 65 50 63
1.1252565383911133 1.2532087564468384 4.2451934814453125 120 110 127
0.780415415763855 -0.7752698063850403 4.943292617797852 78 53 67
-0.8051092624664307 0.31187278032302856 5.810656547546387 195 189 173
0.07675937563180923 0.6099458336830139 4.862788200378418 74 42 54
-0.16208909451961517 0.7204016447067261 5.110299110412598 72 49 57
0.7341272234916687 0.3543272614479065 4.86884880065918 96 69 81
0.934820294380188 0.26943910121917725 4.677938938140869 93 75 96
0.5896761417388916 -0.9533556699752808 5.170668125152588 72 65 73
0.6793785691261292 -1.1395443677902222 5.076359748840332 127 118 138
-2.1998953819274902 -0.9827336668968201 8.054722785949707 131 109 122
0.9347767233848572 0.391708105802536 4.657440662384033 144 119 130
0.9105777740478516 -0.9777337312698364 4.817837238311768 56 44 57
0.8731991052627563 -1.296264886856079 4.899257183074951 84 57 71
-0.20202666521072388 0.7059454321861267 5.152653694152832 86 44 58
-2.197110891342163 -0.9204885363578796 8.054695129394531 87 64 77
1.0157124996185303 1.1240344047546387 4.507950305938721 82 57 77
0.6965393424034119 1.0438892841339111 4.845081806182861 120 96 117
0.670996904373169 -0.18758971989154816 5.005997180938721 149 125 147
0.9806729555130005 -1.3907564878463745 4.788225173950195 58 46 64
0.6656590700149536 -1.2781085968017578 5.1145148277282715 69 49 61
0.7866498827934265 0.7399828433990479 4.793934345245361 107 78 87
-2.3942677974700928 -1.5241750478744507 8.312079429626465 108 88 115
0.7531805634498596 -0.9800245761871338 4.998682022094727 76 63 78
-1.6138161420822144 1.2924277782440186 4.9658308029174805 74 44 58
-0.16208909451961517 0.7204016447067261 5.110299110412598 72 49 57
-1.7605608701705933 1.2725650072097778 5.169388294219971 102 76 97
0.09910973906517029 0.5795923471450806 4.865472316741943 66 36 47
0.7570316791534424 -0.7545344233512878 4.967654705047607 70 58 83
0.2463044971227646 -0.9149145483970642 5.515488147735596 98 67 75
0.6468605995178223 0.3173796534538269 4.983004570007324 130 118 141
0.8311518430709839 -1.147694706916809 4.919703960418701 130 116 138
0.6629126667976379 1.1632665395736694 4.892410755157471 113 108 142
1.2000330686569214 1.0302547216415405 4.322940349578857 132 114 132
0.13919870555400848 0.5774856805801392 4.810799598693848 131 87 102
-1.2365930080413818 1.249376654624939 4.580768585205078 88 47 52
1.1341466903686523 1.2338045835494995 4.24232816696167 16 21 38
0.6531843543052673 -1.0973676443099976 5.096993446350098 83 61 71
0.25284039974212646 -0.9336258769035339 5.506025314331055 143 120 135
-0.5636100769042969 0.5481738448143005 5.686265468597412 164 111 128
0.6538124084472656 0.0015593493590131402 4.9929585456848145 139 121 140
0.7561473846435547 1.117406964302063 4.782022476196289 141 114 129
0.6178154349327087 0.6539983153343201 4.978184700012207 73 59 77
0.780415415763855 -0.7752698063850403 4.943292617797852 78 53 67
1.005489468574524 1.1186327934265137 4.524036407470703 136 108 125
0.6688702702522278 -0.5784279704093933 5.050992488861084 60 42 59
0.13919870555400848 0.5774856805801392 4.810799598693848 131 87 102
0.5805443525314331 -0.28636303544044495 5.112782955169678 57 38 52
0.5515047311782837 -0.2260226160287857 5.126575946807861 144 113 126
0.7744021415710449 0.8763036727905273 4.786290168762207 139 121 140
0.9396728277206421 0.2667914628982544 4.662224292755127 83 71 91
0.45573753118515015 -1.241641640663147 5.324082851409912 79 56 70
-0.7775355577468872 0.3190748989582062 5.803557395935059 146 139 135
0.5805443525314331 -0.28636303544044495 5.112782955169678 57 38 52
0.5739910006523132 0.5425207614898682 5.029712677001953 133 121 138
0.6883232593536377 -1.0968544483184814 5.071566581726074 92 65 86
-0.1391950100660324 0.8791419863700867 5.003951072692871 97 57 60
-0.7199172973632812 0.6897463202476501 5.699705600738525 143 97 118
0.6965393424034119 1.0438892841339111 4.845081806182861 120 96 117
-2.405461311340332 0.5727319717407227 8.093404769897461 98 99 127
0.572914719581604 0.6188753247261047 5.0162177085876465 140 112 127
0.6974278092384338 -1.2598766088485718 5.07766056060791 135 110 132
1.0872628688812256 -1.6065436601638794 4.700539588928223 61 44 60
1.2150301933288574 -0.07092314958572388 4.422281265258789 83 61 77
0.8889259696006775 1.0978381633758545 4.648701190948486 92 73 94
-0.3559023141860962 0.659466564655304 5.320423126220703 70 44 51
0.6820610165596008 -0.9525673389434814 5.067357063293457 91 72 91
0.5560837388038635 -0.388239324092865 5.14833927154541 88 61 75
0.8984823226928711 1.1094911098480225 4.639271259307861 65 48 71
0.7480589747428894 -1.1022112369537354 5.01584529876709 66 44 65
0.8636261224746704 0.9322935938835144 4.682140827178955 133 113 134
0.903130054473877 -0.780301034450531 4.815637111663818 95 67 83
0.06570383906364441 -1.177384853363037 5.726947784423828 76 52 69
0.6656590700149536 -1.2781085968017578 5.1145148277282715 69 49 61
0.8004570007324219 0.7765613794326782 4.771764755249023 69 52 67
-0.8342025279998779 0.6620243191719055 5.8087849617004395 61 63 111
1.039928674697876 -1.398790955543518 4.739036560058594 45 33 55
1.2138972282409668 -0.2557584345340729 4.424365997314453 143 120 138
0.7389916181564331 -0.7720977663993835 4.984747886657715 84 58 71
1.0392158031463623 -0.44757509231567383 4.643301486968994 78 54 68
-2.4309937953948975 0.5415228605270386 8.104568481445312 160 177 223
0.6517745852470398 0.4703730642795563 4.963062286376953 124 103 126
1.0993200540542603 -1.0008474588394165 4.626198768615723 67 57 77
-2.4231486320495605 1.020841360092163 8.046403884887695 151 169 212
1.2138972282409668 -0.2557584345340729 4.424365997314453 143 120 138
-0.19154328107833862 0.7230788469314575 5.144030570983887 91 44 57
0.3966323733329773 -0.956854522228241 5.36052131652832 112 70 84
0.8581883907318115 -1.1725322008132935 4.900567531585693 67 50 68
-1.6482709646224976 1.2603150606155396 5.050410270690918 108 69 89
1.1050196886062622 0.8602493405342102 4.439205646514893 133 107 117
-0.9045524597167969 0.9054229855537415 5.764286518096924 72 50 57
0.6461670398712158 -0.11688334494829178 5.012637615203857 76 54 57
0.16282042860984802 -1.2800496816635132 5.627310752868652 106 95 111
-2.366090774536133 0.07658689469099045 8.16662311553955 98 84 113
0.6244376301765442 -0.5896064043045044 5.10202693939209 60 48 58
0.607818603515625 -1.2646493911743164 5.165506839752197 77 58 77
0.25589677691459656 -1.4994250535964966 5.558084964752197 80 55 80
0.7438710331916809 1.1691960096359253 4.78216552734375 137 115 131
1.096923589706421 0.17782218754291534 4.517123222351074 146 123 143
-2.2212061882019043 -0.8088983297348022 8.063213348388672 72 52 69
-1.494027018547058 -1.4721295833587646 7.384984016418457 74 50 63
0.8536869287490845 0.4955029785633087 4.735881328582764 119 91 106
-0.07888296991586685 0.32248446345329285 5.496413707733154 71 34 45
1.0243302583694458 -0.8392969965934753 4.680546283721924 137 115 137
0.28057268261909485 -1.3218169212341309 5.519032955169678 106 68 88
0.7911470532417297 0.920478105545044 4.773807048797607 82 66 89
-0.07184476405382156 0.7000894546508789 5.021876811981201 85 60 69
-1.3541061878204346 1.2314263582229614 4.757208824157715 113 77 93
-2.2212061882019043 -0.8088983297348022 8.063213348388672 72 52 69
0.8581883907318115 -1.1725322008132935 4.900567531585693 67 50 68
1.2517062425613403 0.3589445948600769 4.330905437469482 141 113 123
-0.8160380125045776 -0.036642275750637054 6.097882270812988 158 136 124
0.7098703980445862 0.6193286776542664 4.895552635192871 121 111 133
0.6688977479934692 -0.9712570905685425 5.077775955200195 73 47 64
1.07337486743927 -0.08444611728191376 4.566314220428467 141 125 141
-2.386199712753296 0.0018749905284494162 8.149896621704102 104 87 118
-0.22873911261558533 0.05687328800559044 5.669342041015625 65 33 41
-0.0880652666091919 -0.03747657686471939 5.528842926025391 66 39 47
0.6920285820960999 0.3682391047477722 4.913987159729004 93 68 75
0.8573324084281921 0.46420788764953613 4.737425327301025 135 111 127
0.8164671659469604 0.7738814949989319 4.757913589477539 74 62 77
0.9014968872070312 -1.3804296255111694 4.874026298522949 57 39 62
-2.13935923576355 -0.43165329098701477 7.931310653686523 75 61 74
0.5233991146087646 -0.3719531297683716 5.173002243041992 139 120 141
0.8167855143547058 0.13064487278461456 4.815987586975098 83 60 74
-1.3064225912094116 -1.5125139951705933 7.196079730987549 50 32 43
1.126233458518982 0.13366760313510895 4.492213249206543 139 122 140
-1.987548828125 -0.10151877254247665 7.7422566413879395 59 45 69
0.7187439203262329 0.15327692031860352 4.926703929901123 71 57 70
0.5897209048271179 0.17242959141731262 5.055122375488281 101 70 80
0.953433096408844 -0.436556875705719 4.734728813171387 84 54 69
1.0607463121414185 0.6047552824020386 4.523368835449219 67 49 67
0.5383847951889038 -0.22498148679733276 5.142804145812988 140 114 132
-1.9824851751327515 -0.6237642168998718 7.798892021179199 54 39 58
1.2046070098876953 0.21407011151313782 4.399644374847412 107 79 97
0.9052914381027222 -1.3664791584014893 4.8689751625061035 130 113 140
-2.305901288986206 -0.41174131631851196 8.114748001098633 60 50 62
0.9809203743934631 -0.9804539680480957 4.758671760559082 60 49 61
0.8926483392715454 1.249036192893982 4.5043768882751465 73 68 85
-0.13882067799568176 0.7012869715690613 5.083576679229736 66 42 45
0.7107473611831665 -0.23636575043201447 4.983621597290039 53 37 42
-1.3541061878204346 1.2314263582229614 4.757208824157715 113 77 93
-0.15089699625968933 0.5814544558525085 5.125882148742676 142 91 108
1.0243229866027832 -1.3967922925949097 4.751324653625488 65 42 68
1.088356614112854 -1.5884182453155518 4.690072059631348 131 117 140
-1.8043005466461182 -0.4726666808128357 7.599282741546631 64 52 66
0.8791025280952454 -1.4124759435653687 4.885490417480469 98 69 90
0.5595976710319519 0.5491280555725098 5.03359317779541 134 115 133
1.040818214416504 1.0585440397262573 4.482560157775879 140 118 135
-1.5652921199798584 -0.8515877723693848 7.389477729797363 131 110 128
-1.3064225912094116 -1.5125139951705933 7.196079730987549 50 32 43
0.8704597353935242 -1.3802382946014404 4.913320064544678 60 41 59
1.1414939165115356 0.2030983418226242 4.461533069610596 106 79 96
0.6965393424034119 1.0438892841339111 4.845081806182861 120 96 117
-1.6517456769943237 -0.14447399973869324 7.4083967208862305 52 38 49
0.10080685466527939 0.3467348515987396 5.307318687438965 72 32 43
0.05774394050240517 -1.1619060039520264 5.732039928436279 136 122 146
1.0338181257247925 -0.8260438442230225 4.682908058166504 84 61 77
0.7325610518455505 -1.561003565788269 5.076575756072998 82 64 76
0.7665393948554993 0.8283776640892029 4.796219348907471 87 61 74
0.4323689043521881 -0.6998263597488403 5.307086944580078 139 125 150
-2.4297983646392822 1.455383539199829 8.022713661193848 81 87 113
-0.2525258958339691 -0.11112018674612045 5.692078113555908 65 37 46
0.657193124294281 -1.1536895036697388 5.1146697998046875 70 49 67
-1.2016067504882812 1.2482264041900635 4.541443347930908 75 42 51
0.9014968872070312 -1.3804296255111694 4.874026298522949 57 39 62
-1.0355454683303833 0.9234968423843384 5.929500579833984 76 54 61
0.6393411159515381 -1.0925601720809937 5.116640567779541 86 67 73
0.2565157413482666 -1.224859356880188 5.539427280426025 84 54 62
-1.6517456769943237 -0.14447399973869324 7.4083967208862305 52 38 49
0.8173615336418152 -1.1736563444137573 4.945774555206299 63 48 61
1.122767448425293 1.1160742044448853 4.399791717529297 142 130 155
1.0393669605255127 -0.2604786157608032 4.628090858459473 65 45 57
0.6486546993255615 0.696887195110321 4.936156272888184 148 127 147
0.6181747317314148 0.5290543437004089 4.98720121383667 127 120 142
1.084280252456665 -0.2303468883037567 4.579330921173096 136 122 137
0.6585350632667542 0.47679322957992554 4.941085338592529 98 71 93
1.1414815187454224 -0.06597697734832764 4.504186630249023 66 51 61
0.135860413312912 -1.2806142568588257 5.664053440093994 87 65 82
0.8951094746589661 -0.9902533292770386 4.821149826049805 119 100 112
0.8369601964950562 1.1115041971206665 4.706575393676758 127 113 135
0.6639033555984497 -0.11444985866546631 4.992990970611572 72 50 63
-2.417231559753418 1.3025238513946533 8.034208297729492 77 87 109
0.37210696935653687 -0.3555372655391693 5.321595191955566 152 126 144
0.8454664349555969 -1.364977240562439 4.930599689483643 131 109 128
-0.928638756275177 -1.1772359609603882 6.078129768371582 50 25 24
1.0943794250488281 1.0916826725006104 4.445984840393066 45 37 51
1.1198253631591797 1.2272024154663086 4.255703449249268 115 97 110
0.6826214790344238 0.28587526082992554 4.945160388946533 81 58 74
0.08483464270830154 0.689464271068573 4.85855770111084 84 47 63
-1.8680037260055542 1.2875642776489258 5.291906356811523 111 73 89
0.8109715580940247 0.15340708196163177 4.82790994644165 86 64 86
0.8565611839294434 0.8414834141731262 4.704670429229736 145 122 139
-0.030192583799362183 1.165277361869812 4.908539295196533 61 40 45
1.0223681926727295 -0.7877687215805054 4.688651084899902 67 49 67
1.2253119945526123 1.128528356552124 4.26757287979126 73 67 90
0.10167745500802994 -1.1826872825622559 5.690435409545898 101 71 87
0.16822193562984467 -1.4971749782562256 5.655275344848633 98 69 84
0.7206516861915588 0.9133831858634949 4.855536937713623 84 66 86
0.9449760913848877 0.4530995488166809 4.640779495239258 133 110 128
0.8196836113929749 -1.1027717590332031 4.940609455108643 62 47 66
1.2532579898834229 0.07064835727214813 4.3550333976745605 136 114 133
0.8262185454368591 -0.021661370992660522 4.8251543045043945 135 118 137
0.2430589646100998 -1.1968470811843872 5.543470859527588 148 125 146
-0.6542420387268066 0.3856588304042816 5.791128635406494 29 18 23
0.5955312848091125 -0.9933225512504578 5.162370681762695 138 113 133
0.7322375774383545 -0.4530895948410034 4.9630446434021 131 106 125
-0.35526832938194275 0.7392058968544006 5.315980911254883 69 40 53
-1.7595127820968628 -0.2981484532356262 7.542555332183838 127 111 132
0.6011559367179871 0.6977216601371765 4.982851028442383 118 109 127
0.7729620337486267 0.16914783418178558 4.856501579284668 145 128 147
0.9083680510520935 -1.3962681293487549 4.852994441986084 129 106 128
0.4683511555194855 -1.0907620191574097 5.287854194641113 96 72 85
-1.726455807685852 -1.463409662246704 7.621082305908203 54 39 49
0.9569815397262573 0.48702821135520935 4.623878002166748 94 67 76
0.41279885172843933 -0.373353511095047 5.284555435180664 82 58 71
-1.4350336790084839 1.2385400533676147 4.833713531494141 112 76 92
1.0517598390579224 1.1178020238876343 4.472013473510742 81 62 78
-1.2078064680099487 0.8709093928337097 4.650787830352783 62 33 34
-0.8412606716156006 -1.019158959388733 6.085841178894043 132 79 97
0.5948948860168457 -1.359398365020752 5.201529502868652 78 57 69
1.2348240613937378 0.073662169277668 4.385492324829102 138 117 136
-0.16197291016578674 -0.03078424744307995 5.60456657409668 62 33 43
-0.6792830228805542 -0.525414764881134 6.014073848724365 113 65 73
0.8987735509872437 0.6498295664787292 4.676856517791748 133 109 123
0.6560830473899841 -0.5783471465110779 5.075784683227539 62 45 63
-1.5094645023345947 -0.8914766907691956 7.34949254989624 51 39 49
0.7744021415710449 0.8763036727905273 4.786290168762207 139 121 140
-1.9348698854446411 -0.42679235339164734 7.720556735992432 129 112 135
-1.5652921199798584 -0.8515877723693848 7.389477729797363 131 110 128
0.6617896556854248 0.2992648482322693 4.971875190734863 69 52 67
-2.1484146118164062 -1.2410448789596558 8.024334907531738 127 108 119
0.9181808829307556 0.4304925203323364 4.683309078216553 53 40 49
-0.7977702617645264 -0.6813459396362305 6.14353084564209 61 33 41
0.5903627872467041 0.530335545539856 5.0135321617126465 71 53 74
-1.9878489971160889 0.8314818143844604 7.639534950256348 157 174 244
-1.6026300191879272 -1.4714829921722412 7.487253189086914 74 55 66
-2.135124444961548 -1.5557361841201782 8.038867950439453 80 56 78
-1.9484399557113647 0.6808807849884033 7.624379634857178 19 26 45
1.0559087991714478 0.41548606753349304 4.5501484870910645 66 47 56
0.8253292441368103 -0.009445849806070328 4.820844650268555 89 65 79
0.8363561630249023 -0.9926468133926392 4.903960704803467 71 60 77
0.6818153262138367 0.8222439289093018 4.884897232055664 139 125 144
0.5902080535888672 0.32282501459121704 5.049577236175537 132 118 138
-0.5125254988670349 0.6652597784996033 5.488397598266602 64 35 47
-0.7687033414840698 0.2765324115753174 5.808094501495361 124 113 117
-0.08209826797246933 0.7081504464149475 5.032347202301025 78 39 51
-1.7951380014419556 -1.2637526988983154 7.66630744934082 131 106 123
0.6788175702095032 -1.57766854763031 5.129536151885986 86 70 89
-1.4418106079101562 -1.0996166467666626 7.285965442657471 133 114 131
0.8173615336418152 -1.1736563444137573 4.945774555206299 63 48 61
-0.9228248596191406 0.5789501667022705 6.082762241363525 89 39 53
-0.8232661485671997 -0.45838314294815063 6.149759769439697 65 25 33
-1.8680037260055542 1.2875642776489258 5.291906356811523 111 73 89
0.6644428372383118 1.1424994468688965 4.895785808563232 42 34 51
0.608056366443634 -0.7289900779724121 5.131093502044678 132 123 139
0.7545855641365051 0.15253324806690216 4.885073184967041 135 120 140
0.302930623292923 -1.237607479095459 5.488951683044434 82 55 65
-0.0233693215996027 1.018134593963623 4.919744968414307 81 37 45
0.6753392815589905 0.4274563491344452 4.929662227630615 133 112 127
-2.135124444961548 -1.5557361841201782 8.038867950439453 80 56 78
0.7421481609344482 -0.7568609714508057 4.984499931335449 123 115 137
0.9111114144325256 -1.3506710529327393 4.858682632446289 76 62 91
-0.6993305087089539 0.05674273893237114 5.911685466766357 175 160 138
-1.8177276849746704 -1.277696132659912 7.691220760345459 75 53 61
-0.6159842610359192 0.7593669891357422 5.581404685974121 88 63 78
1.1332156658172607 0.5836533308029175 4.436394691467285 142 115 126
0.7107473611831665 -0.23636575043201447 4.983621597290039 53 37 42
0.6761144399642944 0.45419007539749146 4.930368423461914 132 115 133
0.6810540556907654 0.7639885544776917 4.893290042877197 136 112 125
0.9763810038566589 -0.8033302426338196 4.751480579376221 123 114 133
0.8212682604789734 -0.2352689802646637 4.8552093505859375 65 42 48
0.37444832921028137 -1.050890326499939 5.390328407287598 90 62 77
1.016055703163147 -0.842435359954834 4.701352119445801 90 61 80
1.2183382511138916 1.0672640800476074 4.3053154945373535 56 44 56
-2.3827879428863525 1.177110195159912 8.04231071472168 96 91 114
-0.17700521647930145 0.7495019435882568 5.1239423751831055 99 57 69
0.3422284722328186 -1.4393190145492554 5.462353229522705 107 77 98
-2.1380207538604736 -1.214646339416504 8.012190818786621 136 117 133
1.2511279582977295 0.8045375347137451 4.285269737243652 99 70 75
1.2095452547073364 1.0460220575332642 4.310292720794678 69 49 65
0.309696227312088 -1.5103302001953125 5.502378463745117 89 59 78
0.9421603083610535 -0.9832618832588196 4.787293434143066 81 66 78
0.5743253827095032 0.5305681824684143 5.024273872375488 79 62 85
-1.8213739395141602 0.9380886554718018 7.4760003089904785 50 40 54
0.5902627110481262 1.0809106826782227 4.9616312980651855 97 81 98
-1.2667897939682007 -1.5211845636367798 7.15087366104126 53 33 44
-0.7792865633964539 0.2637926936149597 5.817448139190674 208 204 189
-2.0657191276550293 -0.9747462272644043 7.919727802276611 76 52 66
-1.2119064331054688 1.2480955123901367 4.554435729980469 66 38 43
0.6800046563148499 1.02578604221344 4.8646016120910645 82 62 82
-0.660042405128479 -1.322326421737671 5.860485076904297 59 26 40
0.8852306604385376 -0.35248807072639465 4.791019439697266 82 60 69
-1.5209122896194458 -1.472403883934021 7.413051605224609 76 58 69
-1.9878489971160889 0.8314818143844604 7.639534950256348 157 174 244
-1.2647274732589722 1.2544625997543335 4.6121439933776855 77 45 49
1.2498219013214111 -0.3240736424922943 4.398304462432861 139 114 131
-1.773681640625 0.47761520743370056 7.477596282958984 55 44 51
1.0338181257247925 -0.8260438442230225 4.682908058166504 84 61 77
0.917920708656311 1.0913596153259277 4.606980323791504 45 31 41
1.216908574104309 0.12298687547445297 4.39854621887207 131 112 132
0.9937143921852112 -0.7874545454978943 4.727469444274902 73 54 76
-0.07591291517019272 1.097684383392334 4.954701900482178 56 29 35
-1.1718889474868774 0.9604900479316711 6.0308003425598145 90 60 73
0.8402205109596252 -0.007800919469445944 4.805752754211426 73 50 71
-2.231123447418213 1.5243535041809082 7.832989692687988 70 64 81
-0.674569845199585 0.35204634070396423 5.7895894050598145 134 121 143
0.29854243993759155 -1.3748934268951416 5.49879789352417 96 65 83
0.6181747317314148 0.5290543437004089 4.98720121383667 127 120 142
0.6761144399642944 0.45419007539749146 4.930368423461914 132 115 133
0.7596373558044434 -0.5822391510009766 4.963624477386475 60 41 50
-0.7431995272636414 0.7746300101280212 5.7073974609375 90 58 74
1.2010042667388916 1.243924856185913 4.172171592712402 17 26 43
0.14204466342926025 0.5900204181671143 4.805598735809326 72 43 55
0.3245779573917389 -0.9026046395301819 5.430116653442383 96 67 84
1.189851999282837 1.061780571937561 4.3282060623168945 64 49 64
0.9862237572669983 1.1181782484054565 4.539628505706787 139 121 137
-2.409457206726074 1.5531011819839478 7.994244575500488 69 73 92
0.2353806495666504 -1.4303274154663086 5.569490909576416 102 75 97
-0.997688889503479 0.839609682559967 5.961546421051025 100 57 72
-0.21337616443634033 0.6335868239402771 5.171895503997803 73 44 55
0.7467235922813416 -0.47742077708244324 4.950394630432129 74 59 77
-0.6847079396247864 -1.032009482383728 5.932507038116455 110 78 102
0.7018030285835266 -1.5519250631332397 5.110010147094727 62 49 71
-0.13286828994750977 0.3294712007045746 5.539640426635742 63 31 39
-0.0880652666091919 -0.03747657686471939 5.528842926025391 66 39 47
-0.8164264559745789 -1.0221787691116333 6.067946434020996 135 84 101
1.1671826839447021 -1.607435941696167 4.612322807312012 82 64 89
0.6253103613853455 -0.9360405802726746 5.126287460327148 93 68 86
-0.07888296991586685 0.32248446345329285 5.496413707733154 71 34 45
-1.971300482749939 -1.4239892959594727 7.870964050292969 84 63 87
-1.7756255865097046 1.0784939527511597 5.228446006774902 70 41 51
-0.8148733377456665 0.8949517607688904 5.6765570640563965 62 48 57
0.5372202396392822 -0.1674574613571167 5.133021354675293 109 79 98
-0.29193347692489624 0.6573144793510437 5.250982761383057 61 38 46
1.000830054283142 -0.9906542301177979 4.726346015930176 88 72 92
-0.43355056643486023 -0.05250825360417366 5.721912384033203 72 40 51
-1.35366690158844 -0.5107536911964417 7.140202045440674 64 40 52
-0.03463899716734886 0.6107660531997681 4.979400634765625 48 32 37
0.6347760558128357 1.1541800498962402 4.906193733215332 122 112 143
-1.1646595001220703 0.9410111308097839 6.044149875640869 78 54 64
0.8036619424819946 1.171845555305481 4.724136829376221 104 77 89
1.0587501525878906 0.39114174246788025 4.532763957977295 137 112 126
-1.5299493074417114 0.542182207107544 6.788436412811279 64 33 43
0.8131368160247803 1.089996099472046 4.718095779418945 48 34 47
-1.9566892385482788 1.3250858783721924 5.317429065704346 61 34 43
1.1950091123580933 -1.0359017848968506 4.520442485809326 92 70 90
0.8065819144248962 -1.0863759517669678 4.943047046661377 137 121 147
0.8630116581916809 -0.434608519077301 4.818487167358398 93 63 75
-0.5831014513969421 -1.0445530414581299 5.828739643096924 113 81 104
0.5963042974472046 0.31002670526504517 5.043317794799805 66 45 56
0.744259774684906 -1.2057163715362549 5.004469394683838 135 124 148
-0.440019816160202 -0.32624852657318115 5.622633457183838 114 77 91
0.7645992636680603 -1.3720877170562744 5.009815216064453 83 73 92
-1.3317502737045288 -0.6811691522598267 7.135878562927246 94 59 71
-2.418853998184204 -1.2060937881469727 8.291454315185547 167 188 233
-2.419865608215332 1.1338882446289062 8.032175064086914 146 166 208
0.6786643266677856 0.9290618896484375 4.895489692687988 58 41 58
0.6670731902122498 -0.7526524066925049 5.074985504150391 79 69 86
-0.6547085642814636 -0.5184644460678101 5.992634296417236 50 21 21
1.0633635520935059 -0.837809681892395 4.650634288787842 85 63 84
-1.6993235349655151 -1.467978835105896 7.594331741333008 55 32 45
-0.15141479671001434 0.31046873331069946 5.552777290344238 61 29 37
0.23557688295841217 -1.502532958984375 5.58586311340332 94 74 102
-1.5161590576171875 1.2817299365997314 4.8639726638793945 87 47 54
0.9843208193778992 0.9948402643203735 4.547786712646484 139 122 139
-1.6616873741149902 0.3307732343673706 7.386297702789307 33 25 30
-1.284094214439392 -1.3347760438919067 7.14893102645874 90 66 82
-0.8079119324684143 0.666883647441864 5.77662992477417 129 147 198
0.38980019092559814 -1.2233761548995972 5.391826629638672 102 77 90
1.087133765220642 -0.3496061861515045 4.571141719818115 94 67 88
-0.1663459688425064 0.14305250346660614 5.478761196136475 135 84 95
0.589461088180542 -0.2244802713394165 5.101028919219971 63 49 59
-1.9056134223937988 -0.4492332935333252 7.7028350830078125 63 52 78
0.8068563938140869 0.2865616977214813 4.819035053253174 84 58 68
0.7990652918815613 1.0932682752609253 4.743082046508789 59 41 54
-2.2078933715820312 0.6823991537094116 7.897628307342529 79 63 82
1.0633635520935059 -0.837809681892395 4.650634288787842 85 63 84
0.6417106986045837 -0.22085818648338318 5.041361331939697 71 46 55
0.5327149629592896 -0.02556469291448593 5.12847900390625 121 102 130
-1.4350336790084839 1.2385400533676147 4.833713531494141 112 76 92
-1.3595582246780396 -1.3531373739242554 7.220473289489746 93 61 79
-0.17372043430805206 -0.008693668060004711 5.617661476135254 71 40 53
1.2802660465240479 1.3341748714447021 4.07113790512085 94 86 90
-0.18158476054668427 0.6093825101852417 5.1478753089904785 75 38 52
-1.4344743490219116 0.8433153033256531 6.424320697784424 70 34 44
-0.1050872802734375 1.1327776908874512 4.990305423736572 122 70 82
0.9151325225830078 1.1096909046173096 4.620022296905518 109 104 128
-2.386521100997925 0.7848623394966125 8.071481704711914 102 87 103
0.8819187879562378 -0.05228373780846596 4.775851249694824 142 118 135
-2.2058303356170654 -0.9661573767662048 8.067450523376465 63 46 60
-2.396641731262207 1.0962234735488892 8.060770034790039 106 94 115
-1.3762552738189697 -0.8118035197257996 7.19868278503418 128 111 128
-1.489314317703247 -0.5091742277145386 7.276974678039551 69 55 77
-1.773681640625 0.47761520743370056 7.477596282958984 55 44 51
-0.07359250634908676 0.6919959187507629 5.020756244659424 73 48 59
0.9136157035827637 0.17478881776332855 4.715991973876953 139 116 134
1.1667122840881348 1.2903118133544922 4.207070827484131 164 181 252
-1.1854698657989502 0.08827745169401169 6.671382904052734 56 32 42
-1.2667897939682007 -1.5211845636367798 7.15087366104126 53 33 44
1.0158064365386963 0.6455461382865906 4.554117679595947 91 68 79
0.775475263595581 0.2885785698890686 4.858083724975586 89 67 87
0.11249686777591705 0.687483012676239 4.827630519866943 77 50 61
0.9379869103431702 1.1329697370529175 4.5902910232543945 149 126 144
1.108201503753662 -0.113060362637043 4.538047790527344 75 60 77
0.5584016442298889 -1.2580900192260742 5.212791919708252 81 60 71
0.9281332492828369 -0.43690624833106995 4.771285533905029 74 52 66
-1.5094645023345947 -0.8914766907691956 7.34949254989624 51 39 49
1.2424893379211426 1.2237211465835571 4.125709533691406 172 192 255
1.1044740676879883 1.0471429824829102 4.4239935874938965 144 126 145
-1.627788782119751 -0.1561203896999359 7.37740421295166 62 43 54
-2.2262840270996094 -1.220205307006836 8.108607292175293 76 56 73
0.6128713488578796 0.9696854948997498 4.953246593475342 131 120 145
-0.4529487192630768 0.7847000360488892 5.409313201904297 101 56 70
-2.332324981689453 -0.9350295066833496 8.188023567199707 81 56 75
0.4823313057422638 -0.5280939936637878 5.2310662269592285 131 114 140
0.9741286635398865 -1.4289448261260986 4.795414924621582 93 68 88
1.1062813997268677 0.877407431602478 4.452127933502197 69 51 61
-1.6223284006118774 -0.8056944012641907 7.438060283660889 75 51 64
1.1327232122421265 1.0892473459243774 4.400904178619385 61 47 59
