ply
format ascii 1.0
element vertex 704
property float x
property float y
property float z
property uchar red
property uchar green
property uchar blue
end_header
16.64188003540039 -1.8793731927871704 17.823930740356445 239 231 208
-4.164912700653076 5.221558570861816 18.850662231445312 221 204 175
13.837884902954102 2.5343236923217773 16.03032684326172 250 243 233
16.210506439208984 3.096782922744751 16.139909744262695 245 236 227
1.3690646886825562 2.4919774532318115 15.944942474365234 224 208 188
9.387578964233398 1.6560064554214478 16.53373146057129 196 131 68
2.4393601417541504 2.1416985988616943 15.976916313171387 234 218 186
14.766021728515625 2.6004068851470947 16.10739517211914 234 196 179
16.310930252075195 3.9781596660614014 15.792766571044922 240 232 198
0.21475273370742798 -4.296338081359863 18.033456802368164 240 229 208
8.963804244995117 1.620004415512085 16.453140258789062 173 148 129
13.120309829711914 -3.157987117767334 17.927526473999023 242 234 212
3.6635982990264893 2.3637099266052246 15.813934326171875 242 234 211
8.25757884979248 -2.8414766788482666 16.3280029296875 79 71 59
4.543325424194336 3.1158437728881836 15.293074607849121 51 34 27
16.878877639770508 2.9840540885925293 16.17357063293457 240 232 205
16.079790115356445 1.6855285167694092 16.59751319885254 244 235 222
-4.319117069244385 3.6649091243743896 19.508560180664062 240 233 204
13.73903751373291 1.488494873046875 16.354040145874023 244 239 220
7.791625022888184 1.7802860736846924 16.424419403076172 127 59 22
8.820416450500488 -0.5416838526725769 16.391889572143555 94 76 52
3.2210114002227783 -0.9144794344902039 16.982683181762695 250 231 197
6.917483329772949 -2.336038589477539 16.229772567749023 230 217 193
15.176694869995117 1.4435659646987915 16.59477424621582 245 238 228
15.464566230773926 2.5723438262939453 16.195968627929688 232 191 175
9.327486991882324 -1.07703697681427 16.32985496520996 238 227 201
13.822188377380371 2.4015791416168213 16.067703247070312 243 237 215
14.373516082763672 1.467370867729187 16.444211959838867 244 237 218
16.356365203857422 -3.2308871746063232 18.293989181518555 239 232 213
12.251579284667969 -3.1497251987457275 17.922767639160156 243 238 225
14.247629165649414 3.017064094543457 15.890275001525879 249 242 231
15.717256546020508 -1.2188618183135986 17.582950592041016 83 73 60
1.3462845087051392 3.0574076175689697 15.742905616760254 120 81 74
15.816420555114746 -2.7939488887786865 18.051456451416016 240 234 217
11.130338668823242 2.9305577278137207 14.445908546447754 100 98 103
2.694192886352539 3.153545379638672 15.767044067382812 68 60 63
16.47982406616211 -4.040877819061279 18.535762786865234 240 232 211
12.40538501739502 -4.063656330108643 18.28082275390625 73 57 49
13.465897560119629 2.4104111194610596 15.978611946105957 243 235 205
16.488327026367188 3.628218412399292 15.954472541809082 243 196 171
15.924821853637695 -0.6348429322242737 17.324981689453125 240 231 210
3.0626378059387207 -0.09054707735776901 16.883182525634766 241 232 221
9.11094856262207 -1.1153656244277954 16.306554794311523 71 58 41
14.730117797851562 -4.629815101623535 19.19887924194336 208 217 221
8.091193199157715 -1.245131015777588 16.236074447631836 61 57 47
0.5091652870178223 -3.9595890045166016 17.93055534362793 234 223 198
1.1035579442977905 2.506662130355835 15.92110538482666 177 163 153
11.257726669311523 3.2882137298583984 14.091730117797852 23 24 26
16.369213104248047 -2.548774003982544 18.02128028869629 242 235 217
11.166536331176758 -2.680468797683716 16.239501953125 33 29 27
4.373904228210449 1.6110057830810547 15.887146949768066 43 30 26
0.3776535987854004 -1.436448335647583 17.18528175354004 244 237 226
14.182997703552246 1.6200810670852661 16.417383193969727 246 235 201
11.789048194885254 -3.8466198444366455 18.401775360107422 100 90 94
6.882140159606934 -2.2500839233398438 16.217140197753906 204 191 174
12.789898872375488 -3.184812307357788 18.01740264892578 245 234 209
8.50587272644043 -0.4871288537979126 16.4666748046875 227 214 188
13.416647911071777 1.498286247253418 16.328567504882812 246 240 225
10.191394805908203 -1.4376927614212036 16.51173210144043 237 224 195
2.8837454319000244 3.0947539806365967 15.67815113067627 167 139 127
14.306071281433105 -3.9707255363464355 18.6724910736084 78 57 53
10.263105392456055 -2.1852877140045166 15.903225898742676 228 217 198
13.822774887084961 -2.9242210388183594 17.957691192626953 243 235 218
3.207878828048706 2.100353717803955 15.94726848602295 245 237 215
16.351490020751953 3.631639242172241 15.918143272399902 240 187 167
2.808915138244629 3.251929521560669 15.702138900756836 198 145 124
3.2989418506622314 0.40172961354255676 16.52823829650879 250 239 216
16.509565353393555 -0.2513040602207184 17.272268295288086 243 236 218
16.878807067871094 3.68815541267395 15.998509407043457 241 230 204
8.368252754211426 -1.6465144157409668 16.127864837646484 92 75 63
16.087678909301758 3.985424280166626 15.760520935058594 237 227 201
15.493358612060547 -0.8362641334533691 17.862546920776367 164 196 219
16.50919532775879 2.1647210121154785 16.480031967163086 240 232 210
8.46718692779541 -1.6680972576141357 16.181396484375 90 80 63
9.171858787536621 -1.9640835523605347 16.049901962280273 63 48 41
16.592681884765625 -0.11603444069623947 17.24160385131836 244 231 205
0.5491991639137268 -3.649261236190796 17.895639419555664 239 231 211
3.1089985370635986 -1.5140115022659302 17.153156280517578 219 142 108
11.236550331115723 -2.2820045948028564 16.05419921875 181 166 145
14.001070976257324 1.9024310111999512 16.240537643432617 244 234 205
15.731426239013672 2.343168020248413 16.34845542907715 242 236 221
16.260250091552734 1.4049791097640991 16.727493286132812 244 238 226
1.4323711395263672 2.488760471343994 15.978900909423828 225 206 183
8.74206829071045 -0.9964523911476135 16.182998657226562 51 43 34
14.772242546081543 1.4554131031036377 16.482595443725586 246 239 226
16.122554779052734 4.545450210571289 15.566683769226074 101 112 115
3.9004077911376953 -1.2440924644470215 17.068950653076172 103 99 92
-4.280012130737305 5.289617538452148 18.826778411865234 187 119 87
8.178142547607422 1.6729611158370972 16.467527389526367 39 26 20
6.387935638427734 -1.6565701961517334 16.026704788208008 231 210 180
15.831969261169434 3.027886152267456 16.16545295715332 17 16 15
14.941125869750977 1.8643831014633179 16.40970230102539 242 230 191
16.644681930541992 3.2770652770996094 16.062530517578125 241 234 213
3.211369037628174 1.9511327743530273 15.970755577087402 244 235 215
13.69725227355957 1.838781476020813 16.223705291748047 249 243 234
14.925470352172852 -4.517643451690674 18.892581939697266 137 164 190
16.023366928100586 -3.29736328125 18.302412033081055 239 233 215
3.3254191875457764 2.7364554405212402 15.800517082214355 240 225 196
8.764559745788574 -1.3259786367416382 16.093957901000977 93 70 49
13.995546340942383 2.246500015258789 16.125951766967773 245 238 221
15.9590425491333 -0.5090987682342529 17.333370208740234 240 232 208
14.290515899658203 2.945223093032837 15.92968463897705 231 190 174
13.498591423034668 -1.914021372795105 17.455751419067383 248 241 231
3.2396163940429688 -2.8645546436309814 17.653709411621094 243 233 208
13.556741714477539 2.410587787628174 16.0323429107666 241 233 194
8.18647289276123 -1.1340181827545166 16.25676918029785 71 59 50
9.44343376159668 3.196035623550415 16.018993377685547 200 138 75
4.22292947769165 1.1198197603225708 16.203571319580078 245 239 221
16.869985580444336 3.4775662422180176 16.023433685302734 244 190 168
16.30095672607422 0.43650683760643005 17.03972625732422 240 230 205
3.394649028778076 -1.7519702911376953 17.25594711303711 242 235 218
8.38769817352295 -1.3961577415466309 16.023277282714844 237 223 193
10.858924865722656 -1.9123107194900513 16.091751098632812 73 66 56
-4.568479537963867 5.065003395080566 18.825727462768555 47 45 43
8.677672386169434 -2.385251522064209 16.062049865722656 88 78 57
14.550240516662598 2.2315316200256348 16.237693786621094 245 237 222
16.228527069091797 -1.1902403831481934 17.593204498291016 240 233 212
3.5857126712799072 2.3683507442474365 15.855546951293945 243 233 206
15.467610359191895 -4.33451509475708 18.567367553710938 245 239 230
14.801051139831543 -2.748286724090576 17.951416015625 243 237 225
12.652621269226074 -2.4960110187530518 17.60592269897461 245 230 196
13.624898910522461 1.6386339664459229 16.315948486328125 246 236 212
8.035964965820312 -1.0869007110595703 16.29370880126953 110 92 77
7.790156841278076 -2.6570885181427 16.312711715698242 227 213 187
15.643741607666016 1.4267231225967407 16.599159240722656 247 239 228
2.39711594581604 2.431504487991333 15.856151580810547 220 205 183
15.689699172973633 1.6995689868927002 16.558950424194336 242 234 208
3.2357895374298096 -0.5720090270042419 16.875701904296875 249 238 223
12.400705337524414 -2.50630259513855 17.658323287963867 241 235 203
9.29904556274414 3.302011013031006 15.929247856140137 225 182 140
8.035964965820312 -1.0869007110595703 16.29370880126953 110 92 77
15.097567558288574 1.442252516746521 16.51756477355957 244 236 223
3.153982162475586 1.953997015953064 15.974381446838379 244 233 208
1.3647693395614624 -2.1082262992858887 17.447479248046875 241 234 219
14.00778865814209 -0.42967647314071655 17.086376190185547 247 242 222
15.36953353881836 1.4387093782424927 16.557615280151367 247 239 229
9.718323707580566 -1.2806930541992188 16.44404411315918 234 218 188
2.41650652885437 2.2822864055633545 15.979056358337402 218 203 181
0.9328446388244629 2.514277219772339 15.965940475463867 162 155 148
4.468544006347656 1.8436334133148193 15.720946311950684 56 39 32
14.022403717041016 1.6232703924179077 16.321046829223633 244 237 215
0.6588661074638367 2.2398219108581543 16.003992080688477 160 157 154
16.992584228515625 3.3435494899749756 16.111635208129883 247 240 232
2.360427141189575 2.145381450653076 15.964614868164062 236 223 195
1.128255844116211 -0.1534283310174942 16.801254272460938 244 233 210
8.593932151794434 -2.311293125152588 16.141399383544922 84 81 76
10.919068336486816 -2.707130193710327 16.101709365844727 38 32 28
1.314681887626648 -1.323609709739685 17.242374420166016 246 236 212
0.7960603833198547 2.2347147464752197 16.014568328857422 183 171 155
10.798951148986816 -2.804079055786133 16.190292358398438 233 154 114
13.534472465515137 1.6378397941589355 16.205989837646484 245 234 200
1.8559212684631348 2.1756882667541504 16.021381378173828 236 217 192
14.507135391235352 1.4652371406555176 16.450286865234375 245 238 222
-0.16184201836585999 -0.6468704342842102 16.93282699584961 240 232 214
16.122554779052734 4.545450210571289 15.566683769226074 101 112 115
8.430935859680176 -1.3298585414886475 16.061853408813477 217 208 187
9.14608097076416 -1.5293464660644531 16.11937713623047 227 210 180
15.698768615722656 -1.781592607498169 17.756216049194336 246 241 235
13.253664016723633 -2.1950156688690186 16.85611343383789 214 204 188
9.350031852722168 -1.9443148374557495 16.065780639648438 235 218 187
15.794731140136719 1.562203049659729 16.590991973876953 244 237 221
14.173770904541016 1.4740619659423828 16.476783752441406 245 237 215
7.833878040313721 -1.1370247602462769 16.27559471130371 221 202 173
16.53179168701172 -4.029637813568115 18.50812339782715 242 234 216
7.140715599060059 -1.730895757675171 16.43520164489746 76 60 40
1.7809994220733643 2.467327833175659 15.876721382141113 237 228 201
1.7762669324874878 2.1788618564605713 16.018085479736328 236 215 193
3.0362021923065186 2.456286907196045 15.825003623962402 98 80 84
14.091014862060547 2.5235090255737305 16.036516189575195 243 235 216
15.939229965209961 -1.4502389430999756 17.649784088134766 238 232 210
7.5315470695495605 3.124284267425537 15.33218002319336 121 116 108
8.819587707519531 3.308783531188965 15.901948928833008 38 26 24
3.753889799118042 2.3589420318603516 15.795588493347168 242 234 211
13.720110893249512 2.2551145553588867 16.070877075195312 242 233 204
8.757572174072266 -1.3912674188613892 16.05913543701172 72 63 52
16.447246551513672 -1.0625771284103394 17.55415916442871 242 232 209
13.30534553527832 -4.340111255645752 18.455116271972656 241 234 215
16.84963035583496 3.952397346496582 15.819859504699707 167 159 149
15.955406188964844 3.5880396366119385 16.076683044433594 16 15 16
13.848702430725098 -0.6972272396087646 17.192659378051758 245 239 226
-4.469420433044434 4.845871925354004 19.019893646240234 123 91 82
-0.028718989342451096 -2.719683885574341 17.580045700073242 238 229 203
14.673375129699707 0.8372424244880676 17.000009536743164 89 63 58
-4.429385662078857 5.4879350662231445 18.66547966003418 212 198 180
16.342470169067383 -3.081925392150879 18.18307876586914 241 235 220
13.043292045593262 -1.7523303031921387 17.177770614624023 64 54 43
16.129837036132812 1.684540033340454 16.59861183166504 246 237 227
13.848702430725098 -0.6972272396087646 17.192659378051758 245 239 226
15.846024513244629 0.38348501920700073 17.254396438598633 119 103 88
-4.280012130737305 5.289617538452148 18.826778411865234 187 119 87
15.320406913757324 1.4408080577850342 16.619491577148438 246 240 228
15.464566230773926 2.5723438262939453 16.195968627929688 232 191 175
11.661881446838379 -3.957184076309204 18.4626522064209 185 197 210
13.9588041305542 1.4811811447143555 16.37898063659668 246 238 220
8.004740715026855 -2.9202816486358643 16.196407318115234 71 54 36
13.823127746582031 1.4847626686096191 16.382793426513672 246 239 223
0.727089524269104 -3.3624565601348877 17.765825271606445 239 229 210
13.064122200012207 -3.183868169784546 18.01390838623047 242 236 221
16.26345443725586 2.455317735671997 16.35836410522461 241 232 205
12.858854293823242 -3.16143798828125 17.943004608154297 243 236 218
8.430935859680176 -1.3298585414886475 16.061853408813477 217 208 187
16.608428955078125 -3.450223445892334 18.335830688476562 116 88 82
8.778610229492188 3.290419578552246 15.894243240356445 192 147 112
15.695099830627441 2.7650179862976074 16.156848907470703 221 185 174
13.796042442321777 2.250483751296997 16.072559356689453 243 237 216
3.2626264095306396 -0.15760721266269684 16.725391387939453 249 239 228
9.369821548461914 -1.0823019742965698 16.31707191467285 80 61 46
4.037322998046875 -1.1445637941360474 17.020177841186523 221 200 169
6.596524238586426 -2.292479991912842 16.05054473876953 228 216 195
9.678924560546875 -1.483532428741455 16.465473175048828 237 222 190
16.343761444091797 1.8230087757110596 16.53038215637207 243 237 226
16.869985580444336 3.4775662422180176 16.023433685302734 244 190 168
7.0888752937316895 -2.0479836463928223 15.85621166229248 76 64 47
13.689102172851562 1.6346323490142822 16.27985954284668 245 237 214
8.833321571350098 -2.6814260482788086 16.19930076599121 80 72 64
14.130440711975098 3.173095941543579 15.871895790100098 243 236 218
16.587026596069336 0.020662810653448105 17.19460105895996 244 237 227
16.228527069091797 -1.1902403831481934 17.593204498291016 240 233 212
7.44972038269043 -1.2383841276168823 16.599164962768555 236 223 197
15.946990013122559 1.5572692155838013 16.64080047607422 245 235 222
8.624259948730469 -1.321056842803955 16.075090408325195 107 74 44
8.140105247497559 -1.405104160308838 16.081483840942383 206 193 174
16.13471221923828 -2.274235486984253 17.938692092895508 243 231 204
1.691062569618225 2.471543312072754 15.870172500610352 234 219 191
6.290171146392822 -2.207693576812744 15.891203880310059 109 84 56
9.207359313964844 -1.2990714311599731 16.305997848510742 228 208 176
13.478843688964844 1.4985780715942383 16.372148513793945 245 239 225
14.439257621765137 -0.3418598473072052 17.40245246887207 159 192 215
14.793091773986816 1.5963889360427856 16.47173500061035 247 240 229
10.263105392456055 -2.1852877140045166 15.903225898742676 228 217 198
8.521727561950684 -0.350321888923645 16.429424285888672 70 70 68
3.9722225666046143 -3.5190653800964355 17.911823272705078 243 237 223
16.528268814086914 2.445124864578247 16.393733978271484 239 232 208
4.406595230102539 -0.23982109129428864 16.489513397216797 234 229 217
9.027420043945312 -1.1967451572418213 16.265003204345703 83 67 50
8.87236213684082 -0.23034952580928802 16.394268035888672 212 201 175
16.848079681396484 2.2961175441741943 16.416370391845703 243 238 229
16.26202392578125 4.466723442077637 15.613626480102539 108 119 125
0.2526814937591553 2.3292291164398193 15.961456298828125 95 70 68
8.105223655700684 -0.18809418380260468 16.481287002563477 223 208 184
14.716212272644043 1.8785181045532227 16.366588592529297 248 239 231
16.592628479003906 2.5144765377044678 16.321672439575195 247 239 230
7.571274757385254 -1.841810941696167 16.257394790649414 230 218 196
16.831954956054688 1.8089804649353027 16.650293350219727 246 237 228
13.866899490356445 -2.238563060760498 17.72136878967285 241 233 210
7.79457950592041 -1.3798846006393433 16.351728439331055 100 77 59
15.45624828338623 -3.255366563796997 18.193288803100586 238 215 183
7.8926897048950195 -1.0627710819244385 16.288536071777344 238 229 201
16.048595428466797 3.8928234577178955 15.79588794708252 44 31 24
16.369213104248047 -2.548774003982544 18.02128028869629 242 235 217
14.673375129699707 0.8372424244880676 17.000009536743164 89 63 58
15.521331787109375 1.4318138360977173 16.627609252929688 247 239 228
15.400092124938965 1.5766831636428833 16.563156127929688 242 236 220
8.87840747833252 -0.2973293662071228 16.403640747070312 221 210 184
-3.6557345390319824 4.721159934997559 19.19660186767578 194 177 152
-4.237804889678955 5.083828449249268 18.973419189453125 223 210 184
0.8156152367591858 2.0747320652008057 16.028791427612305 201 181 161
-0.18514293432235718 -0.9951179623603821 17.045642852783203 244 227 202
8.319219589233398 -2.973229169845581 16.295001983642578 222 210 190
13.48773193359375 -2.5604591369628906 17.78253936767578 241 236 218
13.655774116516113 0.25880566239356995 16.813791275024414 246 242 231
1.0842260122299194 0.4926605522632599 16.59943389892578 244 236 218
15.816420555114746 -2.7939488887786865 18.051456451416016 240 234 217
7.745395183563232 -1.1377536058425903 16.331937789916992 233 219 194
-3.636255979537964 2.8864824771881104 19.78052520751953 81 81 83
16.12822914123535 1.5544289350509644 16.65237808227539 246 239 230
12.367034912109375 -0.29496148228645325 16.721866607666016 91 92 93
8.5725679397583 2.616759777069092 16.146392822265625 217 164 125
2.5073158740997314 2.376595973968506 15.936990737915039 137 115 84
16.53179168701172 -4.029637813568115 18.50812339782715 242 234 216
15.96992015838623 2.182224988937378 16.40129280090332 239 232 213
8.069255828857422 -1.9845454692840576 16.139511108398438 206 191 168
13.343794822692871 -3.8021857738494873 18.260927200317383 242 236 220
0.761660099029541 2.872610092163086 13.177294731140137 209 146 122
14.29701042175293 3.784498929977417 15.63502311706543 246 237 214
14.788368225097656 1.7262535095214844 16.41885757446289 244 234 206
16.570072174072266 2.160214900970459 16.453853607177734 245 239 230
2.3787999153137207 2.2841148376464844 15.909140586853027 230 209 186
7.8726654052734375 3.578948974609375 14.649733543395996 246 246 246
13.765427589416504 1.6354081630706787 16.331287384033203 246 239 222
15.22425365447998 2.2047393321990967 16.266775131225586 243 237 223
-5.339856147766113 3.5410706996917725 19.27303695678711 239 224 186
7.508484363555908 2.86545991897583 15.411850929260254 194 181 156
16.607425689697266 -3.021869659423828 18.16830062866211 238 231 211
16.590436935424805 -3.2900171279907227 18.259897232055664 237 230 210
13.876770973205566 -1.7293428182601929 17.528114318847656 247 237 212
7.729865074157715 -1.369482159614563 16.36762046813965 227 212 183
13.737166404724121 1.2840089797973633 12.591497421264648 238 191 170
12.358627319335938 -3.597463607788086 18.03517723083496 222 221 217
13.849312782287598 1.760643482208252 16.281274795532227 246 238 218
4.735096454620361 -2.8989880084991455 17.575483322143555 245 237 223
16.680492401123047 1.8132823705673218 16.59710693359375 242 234 211
9.174636840820312 -2.4279353618621826 16.15703582763672 228 215 190
13.078078269958496 -2.5392940044403076 17.734081268310547 244 237 217
3.2991154193878174 2.815356492996216 15.811685562133789 229 216 189
15.242469787597656 1.3062366247177124 16.628395080566406 242 201 183
16.197568893432617 1.5509393215179443 16.618642807006836 245 240 233
16.520753860473633 3.4927432537078857 15.972692489624023 243 199 179
1.251169204711914 -2.1608974933624268 17.423234939575195 239 233 214
-5.557158470153809 4.776939868927002 18.80970001220703 164 112 88
16.821504592895508 1.6624341011047363 16.718189239501953 240 236 223
8.916254043579102 -2.5151662826538086 16.137426376342773 94 79 58
15.859612464904785 1.6919827461242676 16.558902740478516 246 237 225
16.729360580444336 3.4860754013061523 15.999582290649414 219 166 148
1.666195034980774 2.322432041168213 15.94182014465332 239 217 187
16.896820068359375 3.66546893119812 15.884326934814453 242 231 203
16.0290470123291 -3.8918566703796387 18.450284957885742 234 222 197
8.272745132446289 -1.8367204666137695 16.10888671875 236 221 188
13.647768020629883 1.912973403930664 16.204635620117188 250 243 234
7.861136436462402 -1.6370477676391602 16.200471878051758 78 69 58
14.260116577148438 3.092165946960449 15.879566192626953 252 247 238
9.432159423828125 -1.6191682815551758 16.49365234375 117 111 95
14.112667083740234 1.754037618637085 16.30342674255371 244 235 199
-4.334826469421387 5.4255218505859375 18.695262908935547 190 170 140
16.593547821044922 1.6659859418869019 16.606470108032227 242 235 213
16.911636352539062 -2.7044734954833984 18.10994529724121 240 233 214
16.342470169067383 -3.081925392150879 18.18307876586914 241 235 220
1.180346131324768 0.4943999946117401 16.557653427124023 246 238 224
0.8500999808311462 2.368117094039917 15.901074409484863 200 187 169
7.919162273406982 -2.9162709712982178 16.112743377685547 212 201 183
9.296629905700684 -2.0358495712280273 16.10971450805664 235 222 198
1.2189197540283203 2.449441909790039 16.21653175354004 232 216 191
13.981508255004883 2.463296890258789 16.06233024597168 158 109 87
13.191285133361816 1.206453800201416 16.189083099365234 76 60 47
0.5075668096542358 2.4799134731292725 16.00957679748535 199 191 178
4.065610885620117 3.1165359020233154 15.508301734924316 241 234 208
-4.678344249725342 2.7962334156036377 19.623456954956055 250 236 212
3.3133862018585205 0.467833936214447 16.491497039794922 246 238 222
15.496245384216309 -3.860029697418213 18.390941619873047 243 236 223
13.188882827758789 -3.7624282836914062 18.14698028564453 240 233 213
8.111349105834961 -1.0731605291366577 16.30647850036621 233 219 192
1.014087200164795 -2.7691643238067627 17.618680953979492 242 229 200
16.193679809570312 3.36513614654541 15.97568130493164 242 234 214
14.90796184539795 2.216597318649292 16.277023315429688 241 232 199
3.3343887329101562 0.8818645477294922 16.34939956665039 246 238 220
8.18688678741455 -1.8128392696380615 16.123046875 224 209 183
10.664302825927734 -3.964266061782837 18.072261810302734 244 237 214
16.753829956054688 1.8084648847579956 16.593250274658203 245 237 226
15.69113540649414 1.8476481437683105 16.49100685119629 243 234 218
7.4138503074646 2.0355429649353027 15.697027206420898 235 219 186
13.737643241882324 2.4044835567474365 16.03379249572754 240 232 200
3.531536817550659 2.150753974914551 15.90384292602539 216 146 120
10.651219367980957 -1.2758795022964478 16.009206771850586 226 213 194
9.027085304260254 3.2982654571533203 15.908858299255371 26 18 16
14.070575714111328 2.390860080718994 16.04534339904785 244 235 215
-6.292422294616699 5.432587146759033 19.399646759033203 162 156 140
9.655862808227539 -1.928544521331787 16.200328826904297 93 76 56
16.89177894592285 -2.6190109252929688 18.032501220703125 234 223 197
1.5933676958084106 -2.1790719032287598 17.43897247314453 239 230 209
15.96665096282959 -3.9594733715057373 18.47564125061035 231 217 197
3.531536817550659 2.150753974914551 15.90384292602539 216 146 120
9.094158172607422 -2.5044002532958984 16.20954704284668 31 28 27
0.7259311079978943 -2.2879250049591064 17.494253158569336 242 233 215
3.8602118492126465 -1.2183283567428589 17.044940948486328 244 232 195
14.97188663482666 2.2916693687438965 16.259218215942383 241 233 205
16.186622619628906 1.406352162361145 16.677644729614258 246 238 228
3.3558807373046875 2.3075928688049316 15.929123878479004 244 235 206
14.901656150817871 1.4508455991744995 16.493310928344727 244 237 212
1.7723047733306885 -1.5926998853683472 17.21937370300293 223 162 129
14.397354125976562 1.8909538984298706 16.322599411010742 247 239 222
15.214727401733398 1.8605844974517822 16.49671745300293 247 235 222
12.26992130279541 -3.004377841949463 17.85749053955078 242 237 221
14.08050537109375 2.2416322231292725 16.155006408691406 245 238 221
2.721911668777466 2.2864928245544434 15.954033851623535 239 230 200
8.819587707519531 3.308783531188965 15.901948928833008 38 26 24
8.792814254760742 -0.21558205783367157 16.42074966430664 76 64 49
17.055694580078125 -0.410633385181427 17.393617630004883 242 234 217
8.151946067810059 -1.8554173707962036 16.078786849975586 68 61 55
1.8227676153182983 2.967223882675171 15.7874174118042 180 173 162
4.19534158706665 0.5049281716346741 16.419172286987305 248 234 206
15.197331428527832 1.7174382209777832 16.510507583618164 244 236 220
14.0619535446167 1.279367446899414 16.463796615600586 234 196 178
13.490596771240234 -1.620994210243225 17.481033325195312 245 238 219
14.021025657653809 2.6730105876922607 15.979606628417969 241 234 214
16.816082000732422 2.016212224960327 16.500167846679688 240 199 181
13.958184242248535 1.625754714012146 16.29544448852539 244 236 213
-4.369256019592285 3.6465237140655518 19.296438217163086 245 237 211
15.253003120422363 1.8562839031219482 16.38595962524414 244 235 208
14.758170127868652 -2.4719674587249756 17.859939575195312 243 235 212
9.340232849121094 -1.2157858610153198 16.326135635375977 101 83 57
1.180346131324768 0.4943999946117401 16.557653427124023 246 238 224
12.346181869506836 -2.5967390537261963 17.726551055908203 242 234 211
4.157223224639893 2.3392603397369385 15.818547248840332 245 237 224
8.105223655700684 -0.18809418380260468 16.481287002563477 223 208 184
13.323237419128418 1.500585675239563 16.285314559936523 247 236 203
17.082765579223633 -0.40740156173706055 17.36619758605957 242 233 215
15.593900680541992 1.7005137205123901 16.531713485717773 243 234 205
15.969306945800781 -0.3708716928958893 17.277454376220703 243 236 219
14.84749984741211 1.7246453762054443 16.438541412353516 245 234 207
14.07089900970459 2.594520330429077 15.932000160217285 243 237 221
13.819435119628906 -0.9685310125350952 17.281658172607422 246 238 221
16.24256706237793 2.1764020919799805 16.44887351989746 242 236 226
1.2114540338516235 -4.037633895874023 18.37191390991211 134 101 92
7.483475208282471 -1.512840986251831 16.45697021484375 230 213 183
1.617546558380127 4.117096900939941 15.602029800415039 117 120 118
0.6341330409049988 -3.643573760986328 17.880474090576172 240 234 214
15.431353569030762 -2.922868251800537 18.10042953491211 242 238 231
13.251548767089844 -1.872545599937439 17.39861297607422 76 60 43
7.926052093505859 1.9504752159118652 16.396739959716797 230 182 146
8.586750030517578 1.8023014068603516 16.450714111328125 188 136 90
3.9004077911376953 -1.2440924644470215 17.068950653076172 103 99 92
6.453064918518066 -0.6744880080223083 15.745050430297852 204 193 181
9.094158172607422 -2.5044002532958984 16.20954704284668 31 28 27
8.680110931396484 1.623685359954834 16.44644546508789 184 131 89
9.10163688659668 -1.2608778476715088 16.328304290771484 39 29 20
16.050025939941406 1.409010648727417 16.656797409057617 242 226 190
4.653543949127197 -2.910719394683838 17.618967056274414 244 234 210
1.5908194780349731 3.7532901763916016 15.727690696716309 122 121 118
3.1704814434051514 -0.11419738829135895 16.78900146484375 100 94 92
-0.19419275224208832 -3.412506580352783 17.739046096801758 239 219 200
15.655115127563477 1.293733835220337 16.67173957824707 243 200 182
1.5654093027114868 3.8384933471679688 15.746209144592285 124 125 121
3.4852089881896973 2.0869860649108887 15.959712028503418 244 237 217
16.89177894592285 -2.6190109252929688 18.032501220703125 234 223 197
0.1761431246995926 -2.121119499206543 17.439193725585938 241 238 230
13.422537803649902 2.691049098968506 15.86441707611084 244 236 216
9.205105781555176 1.9036424160003662 16.388214111328125 216 166 125
12.346181869506836 -2.5967390537261963 17.726551055908203 242 234 211
15.509963989257812 1.2997366189956665 16.641347885131836 242 198 181
0.38588085770606995 2.3946492671966553 15.9578275680542 166 162 151
8.74206829071045 -0.9964523911476135 16.182998657226562 51 43 34
15.543869018554688 -0.2749618589878082 17.687095642089844 175 207 228
9.205105781555176 1.9036424160003662 16.388214111328125 216 166 125
8.840774536132812 4.201757431030273 15.588756561279297 177 139 106
0.2680153548717499 -2.052885055541992 17.394548416137695 237 229 206
16.364078521728516 0.711232602596283 16.924665451049805 238 229 203
14.915995597839355 1.7209358215332031 16.423694610595703 242 235 209
3.4415435791015625 2.2258949279785156 15.890091896057129 242 234 206
15.242469787597656 1.3062366247177124 16.628395080566406 242 201 183
13.139480590820312 -2.5392167568206787 17.734495162963867 245 239 218
8.97933292388916 -1.101293683052063 16.219072341918945 132 116 84
2.8837454319000244 3.0947539806365967 15.67815113067627 167 139 127
13.909249305725098 1.4845185279846191 16.4552059173584 247 240 227
15.241679191589355 -2.0628244876861572 17.8377742767334 214 154 131
9.483870506286621 -4.3340606689453125 18.163883209228516 241 236 222
2.6108498573303223 2.8518447875976562 15.776944160461426 209 199 182
15.790070533752441 -0.2939184606075287 17.475683212280273 123 111 100
12.327832221984863 -2.6520891189575195 17.70339012145996 246 236 214
12.327832221984863 -2.6520891189575195 17.70339012145996 246 236 214
14.231954574584961 2.6143603324890137 14.689016342163086 215 170 152
12.943272590637207 -2.534006118774414 17.72405433654785 242 237 215
16.02829933166504 3.091417074203491 16.04800033569336 240 218 192
15.509963989257812 1.2997366189956665 16.641347885131836 242 198 181
13.742256164550781 -3.8007147312164307 18.2449893951416 252 247 242
15.062896728515625 1.4466099739074707 16.619911193847656 243 235 212
9.483870506286621 -4.3340606689453125 18.163883209228516 241 236 222
10.009360313415527 0.09867676347494125 16.42364501953125 96 94 92
3.0729143619537354 1.9574532508850098 15.973967552185059 246 239 225
15.821727752685547 -1.774744987487793 17.718006134033203 248 241 233
3.2566616535186768 2.9840586185455322 15.698646545410156 35 29 33
13.12613582611084 -3.0303783416748047 17.909536361694336 243 235 218
15.733417510986328 -3.1175873279571533 18.13937759399414 239 232 210
16.816082000732422 2.016212224960327 16.500167846679688 240 199 181
13.529800415039062 1.494747281074524 16.268356323242188 244 237 214
3.3597192764282227 1.2976596355438232 16.202945709228516 247 239 227
13.49004077911377 1.6416077613830566 16.309467315673828 248 235 214
8.65131950378418 -0.5442309379577637 16.424678802490234 94 78 60
0.9139960408210754 0.5126650333404541 16.531208038330078 245 237 223
15.953001976013184 -4.160004138946533 18.551898956298828 239 230 208
15.192972183227539 2.5496013164520264 16.190397262573242 233 196 180
17.066560745239258 2.771574020385742 16.26952362060547 234 194 179
4.138693332672119 3.119814157485962 15.529298782348633 246 238 226
15.749991416931152 -1.1692081689834595 17.538578033447266 246 240 232
3.366460084915161 2.2340004444122314 15.919167518615723 235 216 184
10.259130477905273 -1.2014442682266235 16.416807174682617 222 215 192
14.021265983581543 2.3992843627929688 16.129201889038086 242 233 200
1.5678168535232544 3.7153725624084473 15.6621675491333 138 137 132
8.043051719665527 0.40764325857162476 16.92113494873047 51 32 20
0.44094526767730713 2.3931970596313477 16.006467819213867 180 172 161
14.960552215576172 2.2153160572052 16.28333282470703 241 232 197
15.568602561950684 -3.648541212081909 18.214889526367188 213 212 209
8.911483764648438 -1.3966103792190552 16.10999870300293 222 208 183
8.041142463684082 -1.7101932764053345 16.19227409362793 54 44 34
4.710996150970459 -1.653692603111267 16.585433959960938 219 208 190
12.853981018066406 -3.0982840061187744 17.947566986083984 244 234 206
14.55148983001709 -4.526333808898926 19.17844581604004 246 249 250
15.626023292541504 -2.790411949157715 18.051424026489258 237 230 205
8.216568946838379 -1.5678492784500122 16.03207015991211 235 220 191
13.043292045593262 -1.7523303031921387 17.177770614624023 64 54 43
-6.212326526641846 6.044909954071045 19.211502075195312 173 168 155
13.826210021972656 1.6321040391921997 16.29743003845215 244 236 214
16.988367080688477 -1.6206251382827759 17.766218185424805 241 232 208
3.3303873538970947 1.2254287004470825 16.277555465698242 248 242 225
17.140422821044922 0.1382414847612381 17.214908599853516 241 232 205
15.944982528686523 -4.226034641265869 18.57013511657715 242 234 217
-0.15778373181819916 -0.366501122713089 16.851165771484375 239 230 208
16.91075325012207 3.8097689151763916 15.85519790649414 228 212 185
17.066560745239258 2.771574020385742 16.26952362060547 234 194 179
6.795262336730957 -0.44577881693840027 12.347477912902832 61 79 108
9.750228881835938 -2.321885585784912 16.337961196899414 32 32 34
15.785431861877441 -0.5424795150756836 17.38770866394043 64 52 40
7.926052093505859 1.9504752159118652 16.396739959716797 230 182 146
14.97188663482666 2.2916693687438965 16.259218215942383 241 233 205
8.592236518859863 -3.0041050910949707 16.348142623901367 52 45 37
10.8548583984375 -2.435157537460327 15.126405715942383 233 153 99
8.388205528259277 -0.9428665637969971 16.25059700012207 94 93 93
15.626023292541504 -2.790411949157715 18.051424026489258 237 230 205
16.13471221923828 -2.274235486984253 17.938692092895508 243 231 204
3.877173900604248 3.482095718383789 15.41645622253418 242 232 205
9.219049453735352 -2.08450984954834 16.203248977661133 212 208 194
14.734359741210938 -1.6236181259155273 17.775407791137695 164 193 209
9.125469207763672 -2.217207908630371 16.192699432373047 82 75 70
1.288863182067871 -1.3501979112625122 17.215044021606445 242 233 209
13.513427734375 2.2566895484924316 15.995322227478027 245 237 218
13.59575080871582 -3.212376356124878 18.091041564941406 242 235 217
16.00245475769043 0.10668488591909409 17.129053115844727 244 237 222
15.703645706176758 -0.558077871799469 17.563922882080078 25 23 24
-5.256259441375732 3.538290023803711 19.267759323120117 240 227 202
16.525693893432617 3.2167022228240967 16.116127014160156 243 234 202
13.571386337280273 -3.3914101123809814 18.08734893798828 232 160 127
1.5619843006134033 3.9108781814575195 16.223417282104492 159 158 145
7.165400981903076 -2.289445638656616 16.130517959594727 218 207 187
12.766027450561523 -1.9088177680969238 16.876644134521484 213 201 185
16.170156478881836 3.3839237689971924 16.076976776123047 241 234 208
13.432311058044434 -2.58270263671875 17.86565589904785 241 233 213
0.9099502563476562 0.0013298385310918093 16.763153076171875 238 230 211
14.399346351623535 -0.7002014517784119 17.558565139770508 191 213 226
16.57497787475586 2.9325761795043945 16.19316291809082 241 230 199
-4.988561630249023 2.8079349994659424 19.844907760620117 43 44 46
8.904932975769043 -2.2986295223236084 16.23354148864746 235 226 201
16.592628479003906 2.5144765377044678 16.321672439575195 247 239 230
15.377890586853027 1.3010822534561157 16.634803771972656 239 194 176
16.494495391845703 -0.924304187297821 17.49249267578125 244 238 226
-3.7601187229156494 3.6830332279205322 19.30275535583496 222 145 110
16.042316436767578 2.177853584289551 16.399927139282227 243 235 221
15.942638397216797 -1.3088349103927612 17.58316421508789 244 237 222
11.639004707336426 -2.3513033390045166 16.01138687133789 206 202 193
13.374417304992676 1.9177970886230469 16.152938842773438 247 239 222
8.326749801635742 -1.1761387586593628 16.214128494262695 191 181 156
1.8587948083877563 -3.5135133266448975 18.189987182617188 136 113 109
7.19415807723999 -0.7734668254852295 16.260160446166992 125 109 79
14.648578643798828 1.6038403511047363 16.436349868774414 246 237 219
8.631110191345215 -1.4656862020492554 16.079532623291016 46 39 34
15.185054779052734 1.5889341831207275 16.534160614013672 244 236 225
8.090836524963379 0.4549720883369446 16.93994140625 221 156 64
3.5957348346710205 -1.2978124618530273 17.102191925048828 67 62 59
9.66512393951416 -1.175000786781311 16.33861541748047 229 214 186
9.931840896606445 -1.17912757396698 16.279054641723633 221 207 181
15.766639709472656 2.7882132530212402 16.1815128326416 219 189 177
13.860809326171875 3.0328433513641357 15.888017654418945 244 234 214
11.182283401489258 -3.3812034130096436 17.866878509521484 62 29 18
13.609922409057617 1.4935455322265625 16.359943389892578 246 238 217
16.09626007080078 2.3276925086975098 16.42101287841797 241 235 222
13.90918254852295 1.6323927640914917 16.379825592041016 243 234 201
8.683385848999023 -2.4829983711242676 16.090749740600586 35 27 18
0.15278403460979462 -1.9635590314865112 17.334129333496094 241 234 216
9.360145568847656 -1.151008129119873 16.2687931060791 221 202 172
8.792814254760742 -0.21558205783367157 16.42074966430664 76 64 49
9.09302806854248 -1.7834597826004028 16.179555892944336 214 196 169
0.761660099029541 2.872610092163086 13.177294731140137 209 146 122
3.811458110809326 3.4854984283447266 15.419981002807617 239 228 196
12.38455581665039 -3.925316333770752 18.464096069335938 31 29 30
2.507749080657959 2.8555920124053955 15.741617202758789 225 204 186
1.1116408109664917 -0.574702262878418 16.93048858642578 244 235 214
16.310707092285156 0.7133341431617737 16.919261932373047 239 226 200
14.56623649597168 -4.361814022064209 19.131542205810547 239 246 248
-4.128651142120361 3.478163719177246 19.315214157104492 241 233 199
16.256418228149414 2.949601888656616 16.203163146972656 252 244 239
8.96653938293457 -1.0078279972076416 16.203062057495117 97 66 38
13.12613582611084 -3.0303783416748047 17.909536361694336 243 235 218
-3.6740150451660156 2.8960628509521484 19.692373275756836 226 216 193
15.743027687072754 -1.8002148866653442 17.76527214050293 248 242 237
8.392829895019531 -1.036527395248413 16.30891990661621 60 59 55
-0.18709513545036316 -0.8606703281402588 17.015186309814453 239 220 200
0.03467278927564621 0.4143012464046478 16.59265899658203 242 234 209
17.140422821044922 0.1382414847612381 17.214908599853516 241 232 205
-3.7275733947753906 2.540372371673584 19.852767944335938 223 217 192
8.868724822998047 -0.10561150312423706 16.42255401611328 229 219 195
1.1369963884353638 -1.0660258531570435 17.11801528930664 243 236 218
12.986285209655762 -0.6162958741188049 16.804777145385742 192 175 150
16.507015228271484 2.5107970237731934 16.265682220458984 245 237 224
1.2218468189239502 -1.4655394554138184 17.195838928222656 245 237 220
16.815874099731445 2.4315013885498047 16.319568634033203 243 236 224
17.055694580078125 -0.410633385181427 17.393617630004883 242 234 217
13.327261924743652 -1.7645480632781982 17.500377655029297 247 235 200
17.076526641845703 0.14021942019462585 17.187915802001953 240 233 208
13.30534553527832 -4.340111255645752 18.455116271972656 241 234 215
3.1984336376190186 -1.1282745599746704 17.072769165039062 245 233 206
9.123748779296875 -1.3546466827392578 16.098560333251953 201 186 161
13.917692184448242 -1.6315020322799683 17.503942489624023 251 245 238
-4.679885387420654 3.8021206855773926 19.294757843017578 240 228 200
13.031991958618164 -1.6945855617523193 17.389772415161133 87 59 33
8.695483207702637 -1.28380286693573 16.140756607055664 218 202 177
8.247184753417969 0.28403839468955994 16.880155563354492 48 40 32
12.297847747802734 -4.514604568481445 18.975183486938477 91 124 147
8.694817543029785 -1.3309640884399414 16.11737060546875 87 55 34
4.253203392028809 1.8232803344726562 15.96841812133789 223 150 122
15.70781421661377 1.9822018146514893 16.4486083984375 240 194 174
8.457499504089355 -0.26746320724487305 16.44614601135254 222 206 178
-5.877648830413818 6.058331489562988 18.992029190063477 53 42 41
17.158248901367188 3.331455707550049 16.112403869628906 244 240 231
7.076061248779297 -2.529569625854492 16.013269424438477 81 71 53
0.491986483335495 2.3901243209838867 16.00969123840332 190 176 163
0.8631801605224609 -2.0594987869262695 17.35056495666504 240 233 211
8.692511558532715 -2.6341073513031006 16.134977340698242 231 218 196
8.894810676574707 -1.0003143548965454 16.19432258605957 103 90 70
10.675016403198242 -1.3950358629226685 16.06551170349121 230 218 196
2.6005098819732666 2.385951519012451 16.021711349487305 72 73 68
8.121051788330078 -1.7604840993881226 16.138395309448242 235 223 194
13.00883960723877 -3.7934019565582275 18.233539581298828 241 234 215
14.714434623718262 2.97912859916687 16.337299346923828 115 123 122
8.695483207702637 -1.28380286693573 16.140756607055664 218 202 177
8.850836753845215 -2.4583630561828613 16.161453247070312 218 200 172
13.340890884399414 1.6443305015563965 16.25080680847168 247 239 223
16.319290161132812 -2.261138677597046 17.88039779663086 244 235 218
16.226009368896484 3.0852699279785156 16.07354736328125 246 237 228
1.9401183128356934 -2.19822359085083 17.45526695251465 245 239 228
16.36867904663086 0.639259934425354 16.957889556884766 241 234 211
-4.1526408195495605 4.7136006355285645 18.984800338745117 185 171 160
4.291088581085205 -0.11914804577827454 16.506847381591797 105 104 99
16.543851852416992 1.6704587936401367 16.6636962890625 241 234 213
7.79457950592041 -1.3798846006393433 16.351728439331055 100 77 59
-6.212326526641846 6.044909954071045 19.211502075195312 173 168 155
-3.622767925262451 4.639098644256592 19.18636703491211 190 182 162
0.37457239627838135 -3.625314950942993 17.849653244018555 244 238 224
15.407411575317383 3.537785053253174 16.126001358032227 109 90 87
16.00245475769043 0.10668488591909409 17.129053115844727 244 237 222
16.95111846923828 -2.582726001739502 18.126766204833984 240 224 201
16.471683502197266 1.1253795623779297 18.848541259765625 245 205 184
7.844470024108887 -1.1764334440231323 16.26329803466797 236 219 187
16.494956970214844 -1.2671188116073608 17.624717712402344 242 230 198
16.14197540283203 3.7650513648986816 15.825359344482422 236 229 208
15.617141723632812 -1.3380134105682373 17.943002700805664 114 114 110
13.913792610168457 -1.7711583375930786 17.563133239746094 247 239 230
8.671833038330078 3.0116984844207764 16.008581161499023 194 142 93
4.458402156829834 1.995194435119629 15.715883255004883 109 79 54
0.6717016696929932 -3.925778865814209 17.99786376953125 243 228 201
14.801051139831543 -2.748286724090576 17.951416015625 243 237 225
2.9908220767974854 -1.221490502357483 17.27788543701172 240 230 218
16.666433334350586 -2.4255290031433105 18.01728630065918 245 232 215
8.713028907775879 -2.5188019275665283 16.077417373657227 204 194 174
8.785080909729004 -2.3391222953796387 16.163461685180664 237 230 207
15.9478178024292 0.6952214241027832 16.91352653503418 195 177 155
1.9594205617904663 -3.620377779006958 18.510568618774414 198 200 199
15.377890586853027 1.3010822534561157 16.634803771972656 239 194 176
15.845495223999023 -0.09355384856462479 17.1798152923584 248 241 233
16.319290161132812 -2.261138677597046 17.88039779663086 244 235 218
14.576565742492676 -2.474931478500366 17.879135131835938 241 229 196
1.210677146911621 0.06050698086619377 16.719898223876953 243 238 224
14.785536766052246 -4.104959011077881 18.88306427001953 202 215 221
15.85860538482666 1.284173607826233 16.7331600189209 240 198 181
7.003819465637207 -1.5898877382278442 16.57077407836914 125 110 83
-4.317403793334961 4.721688270568848 18.99406623840332 177 166 154
15.486322402954102 -2.776956796646118 18.015968322753906 242 228 203
14.050882339477539 -1.7734407186508179 17.55866813659668 56 35 28
13.490596771240234 -1.620994210243225 17.481033325195312 245 238 219
17.21497344970703 3.323991537094116 16.075048446655273 242 234 216
12.013726234436035 0.380387544631958 16.878677368164062 31 31 30
15.101383209228516 1.5877891778945923 16.45101547241211 243 234 214
0.585537850856781 2.3851776123046875 16.010175704956055 192 187 168
10.980856895446777 -2.7171030044555664 16.182479858398438 36 30 26
16.00895881652832 -2.273104429244995 17.94700050354004 242 238 226
16.493600845336914 -4.282171249389648 18.54351234436035 240 229 207
14.210197448730469 -2.8789074420928955 18.000112533569336 242 233 204
4.1980509757995605 1.9144253730773926 15.984992980957031 245 234 203
4.085963726043701 -0.2462599277496338 16.76201820373535 218 193 161
16.83578109741211 3.1980814933776855 16.11373519897461 242 233 215
14.714434623718262 2.97912859916687 16.337299346923828 115 123 122
1.988951563835144 -2.781437635421753 17.532838821411133 245 238 230
14.906789779663086 1.5931215286254883 16.432802200317383 241 233 204
3.2566616535186768 2.9840586185455322 15.698646545410156 35 29 33
16.850313186645508 2.784219264984131 16.229660034179688 229 186 170
1.9438883066177368 -2.1263723373413086 17.437389373779297 239 233 217
16.378585815429688 3.3596749305725098 16.015830993652344 244 237 220
2.5844366550445557 2.7770090103149414 15.78998851776123 210 192 163
14.164085388183594 1.6397864818572998 14.839203834533691 173 136 122
14.210197448730469 -2.8789074420928955 18.000112533569336 242 233 204
15.411818504333496 1.7107415199279785 16.53347396850586 242 231 202
17.069202423095703 0.27798107266426086 17.129777908325195 243 236 223
14.522716522216797 -1.681850790977478 16.155899047851562 222 170 145
-3.768226146697998 3.8606905937194824 19.473350524902344 242 230 202
8.983583450317383 -1.175316572189331 16.230974197387695 241 231 200
7.654611110687256 -1.341935157775879 16.388851165771484 96 76 56
16.554277420043945 -3.31376051902771 18.334938049316406 239 229 206
1.6604797840118408 4.475991249084473 15.463129043579102 117 111 106
16.81005859375 2.585594892501831 16.372314453125 237 230 210
9.207359313964844 -1.2990714311599731 16.305997848510742 228 208 176
11.461896896362305 0.9986715912818909 7.307224750518799 241 235 220
14.583066940307617 -0.5137344002723694 17.56256103515625 87 67 61
4.212896347045898 1.6683751344680786 16.037763595581055 222 149 117
13.329537391662598 -3.197597026824951 18.04966163635254 243 235 217
6.776701927185059 -1.70179283618927 16.08461570739746 234 218 194
17.046422958374023 2.4288809299468994 16.42131996154785 237 224 206
9.018047332763672 -1.413332223892212 16.12601089477539 82 76 71
14.496113777160645 -2.4615767002105713 17.82978630065918 244 236 219
16.361724853515625 0.4351820945739746 17.0601863861084 239 229 200
13.974091529846191 -2.4529666900634766 17.819955825805664 244 233 215
0.8623228669166565 2.367795467376709 16.02045249938965 212 197 178
4.16595458984375 -0.054375309497117996 16.6231632232666 248 237 209
7.451379299163818 3.01812481880188 15.330909729003906 234 212 178
12.599828720092773 -2.953920841217041 17.89983367919922 244 239 229
3.0168817043304443 -3.959554433822632 18.004728317260742 49 49 55
0.5154591202735901 2.740525245666504 16.44409942626953 45 32 32
3.119882345199585 -1.9155851602554321 17.411046981811523 243 236 216
15.756428718566895 -1.9836994409561157 17.813983917236328 240 223 198
10.07746696472168 -2.1935513019561768 16.16753578186035 23 22 20
16.082088470458984 -2.0629522800445557 17.850419998168945 240 233 214
-1.9193673133850098 4.5286712646484375 19.232051849365234 123 127 128
-3.683736801147461 4.472412109375 19.131587982177734 76 55 54
11.347424507141113 -2.6603565216064453 16.347900390625 34 30 27
12.442545890808105 -3.7910280227661133 18.282161712646484 68 51 44
4.155991077423096 -0.19993992149829865 16.661684036254883 248 239 209
13.30799674987793 -0.3303927183151245 16.95147705078125 246 238 226
3.8003015518188477 -1.9024714231491089 16.56525230407715 224 213 196
