ply
format ascii 1.0
element vertex 773
property float x
property float y
property float z
property uchar red
property uchar green
property uchar blue
end_header
4058879.5 1509251.625 1558963.5 255 255 255
5932096.5 2915638.75 2911987.5 255 255 255
-1859819.125 -3127403.75 -1480306.75 255 255 255
1918144.75 320448.3125 137738.734375 255 255 255
-2657937.25 -4187490.75 -2103082.5 255 255 255
5703307.5 2757148.0 2754626.75 255 255 255
-2572056.5 -4168863.5 -1981606.75 255 255 255
-1927510.875 -3376847.75 -1330192.625 255 255 255
3152876.5 3381293.5 738498.3125 255 255 255
3713393.0 972646.3125 703020.9375 255 255 255
-0.4989163279533386 -0.7795073986053467 -0.37874895334243774 255 255 255
1918144.75 320448.3125 137738.734375 255 255 255
3301550.0 886168.3125 371624.6875 255 255 255
1597968.375 1071549.875 -344366.71875 255 255 255
4608840.5 4147238.0 214665.546875 255 255 255
-0.49817097187042236 -0.779384970664978 -0.3799799680709839 255 255 255
-3308088.0 -4879072.0 -2649678.0 255 255 255
-0.5389218330383301 -0.7265909910202026 -0.42617926001548767 255 255 255
-3871184.75 -6750934.5 -2672989.5 255 255 255
-0.5799469351768494 -0.6826395392417908 -0.4445951581001282 255 255 255
-3741022.75 -1019636.875 -75419.6875 255 255 255
0.5423380732536316 0.710220456123352 0.44883888959884644 255 255 255
-2325450.0 -3741521.75 -250456.328125 255 255 255
-3894618.75 -5580407.0 -3095230.75 255 255 255
-0.8963748812675476 -0.35738736391067505 -0.26227158308029175 255 255 255
-0.5636357665061951 -0.7007279992103577 -0.4373728334903717 255 255 255
410411.4375 314386.25 -344622.5 255 255 255
3516956.0 888804.8125 684633.5 255 255 255
2353258.75 542720.5 101464.90625 255 255 255
-2760868.75 -4629971.5 -2005176.25 255 255 255
5739182.5 2443937.0 810506.0 255 255 255
3783759.0 1876703.875 16687.5703125 255 255 255
-1970575.375 -3414389.5 -596523.875 255 255 255
1410548.25 304423.65625 -159085.5625 255 255 255
-4259914.0 -6185651.5 -3340140.75 255 255 255
2067109.375 470797.8125 4146.63330078125 255 255 255
-2701783.25 -4134231.5 -2189200.25 255 255 255
-1055684.25 -1213654.25 -156461.734375 255 255 255
-2167432.0 -3675398.75 -456813.5625 255 255 255
3814011.75 3754964.25 98176.75 255 255 255
-0.552227258682251 -0.7150393724441528 -0.4286767840385437 255 255 255
579054.25 156619.453125 -288639.03125 255 255 255
3736158.0 1007199.5 968147.625 255 255 255
3586322.25 1250823.75 1279190.125 255 255 255
3202295.5 808755.5 411814.625 255 255 255
-4259914.0 -6185651.5 -3340140.75 255 255 255
3110939.5 745113.5625 457882.875 255 255 255
-3524583.75 -1150156.875 31158.923828125 255 255 255
-2871104.25 -1215283.375 62693.64453125 255 255 255
3948590.75 1064690.0 932807.75 255 255 255
4330901.5 3516749.75 34215.515625 255 255 255
-0.6898744702339172 -0.5601705312728882 -0.4585653841495514 255 255 255
-0.5500319600105286 -0.7170472145080566 -0.4281449317932129 255 255 255
3640691.25 1561405.5 72383.3515625 255 255 255
4266986.5 1553688.875 408271.4375 255 255 255
3080572.25 722356.4375 541886.4375 255 255 255
5285324.0 5174286.0 948303.5625 255 255 255
4001699.5 1764205.625 1685144.75 255 255 255
-110.66956329345703 -336.2152404785156 -1430.0946044921875 255 255 255
2719.7265625 -3038.471435546875 -5632.5712890625 255 255 255
69.3680419921875 -2882.522216796875 -6541.3505859375 255 255 255
-689.8720703125 -2025.275634765625 -3238.546875 255 255 255
407.7099609375 -119.68270111083984 -836.4603271484375 255 255 255
-834.6887817382812 -1300.595458984375 -1737.8807373046875 255 255 255
-192.3379364013672 -295.4915466308594 -1239.16455078125 255 255 255
-689.8720703125 -2025.275634765625 -3238.546875 255 255 255
-523.7392578125 -201.19845581054688 -939.03759765625 255 255 255
-281.91705322265625 -294.02362060546875 -1021.9415893554688 255 255 255
15.868504524230957 -303.3534240722656 -1914.3905029296875 255 255 255
1215.200927734375 -856.6905517578125 -2242.897216796875 255 255 255
-158.01100158691406 -393.8062438964844 -864.892333984375 255 255 255
-365.21551513671875 -1410.773193359375 -1546.813720703125 255 255 255
-412.1661682128906 -174.8282470703125 -333.1183776855469 255 255 255
99.51451110839844 -1980.30078125 -2480.386474609375 255 255 255
116.20037078857422 -820.1590576171875 -1783.2689208984375 255 255 255
673.7603759765625 -1599.3565673828125 -2968.70458984375 255 255 255
-184.982177734375 -981.6404418945312 -2136.416015625 255 255 255
-438.4908142089844 -88.14379119873047 -324.5615234375 255 255 255
673.7603759765625 -1599.3565673828125 -2968.70458984375 255 255 255
-163.28147888183594 -118.68553161621094 -280.53338623046875 255 255 255
-541.3187866210938 1712.4710693359375 -463.71771240234375 255 255 255
-533.238525390625 836.024658203125 253.5283203125 255 255 255
-599.548583984375 744.2858276367188 -202.6481170654297 255 255 255
-424.8390197753906 169.5319061279297 -294.72528076171875 255 255 255
-1018.8952026367188 3427.830322265625 -138.5224151611328 255 255 255
-469.24237060546875 499.1971435546875 -1387.0384521484375 255 255 255
-642.4190673828125 639.016357421875 137.0764617919922 255 255 255
-317.86810302734375 189.74656677246094 -556.51611328125 255 255 255
-1018.8952026367188 3427.830322265625 -138.5224151611328 255 255 255
-285.6467590332031 1698.0386962890625 -259.9097595214844 255 255 255
-165.8058319091797 89.91596984863281 -317.69512939453125 255 255 255
-48.911888122558594 164.82920837402344 53.570858001708984 255 255 255
-6403.3466796875 -4125.4130859375 -14899.216796875 255 255 255
86.12627410888672 1964.324951171875 -156.86424255371094 255 255 255
86.12627410888672 1964.324951171875 -156.86424255371094 255 255 255
1805.677734375 -5475.0849609375 -5352.69970703125 255 255 255
1477.4490966796875 -4572.86083984375 -958.5669555664062 255 255 255
1384.913818359375 -4525.509765625 -1150.375244140625 255 255 255
1340.5068359375 -3691.202880859375 -3793.76123046875 255 255 255
-6190.92529296875 3956.44677734375 9658.765625 255 255 255
-1413.8232421875 4774.48583984375 8057.9189453125 255 255 255
1619.1533203125 -1579.6663818359375 -3398.060546875 255 255 255
-2089.2568359375 1487.8336181640625 2493.698974609375 255 255 255
1257.0657958984375 -4718.30615234375 -3114.748779296875 255 255 255
1241.6265869140625 -4594.0107421875 -2150.01611328125 255 255 255
-1190.4049072265625 5591.474609375 1965.4339599609375 255 255 255
-6482.58984375 5189.65185546875 9302.783203125 255 255 255
-4853.52880859375 6508.07421875 5714.21728515625 255 255 255
3873.63916015625 -14114.251953125 -12780.736328125 255 255 255
3873.63916015625 -14114.251953125 -12780.736328125 255 255 255
5734.04443359375 -15002.4345703125 -14202.048828125 255 255 255
5050.54052734375 -16016.015625 -13357.64453125 255 255 255
53044.91015625 -101297.8515625 -88891.84375 255 255 255
12406.2353515625 -40268.1015625 -49110.921875 255 255 255
25049.984375 -62749.26953125 -44739.5625 255 255 255
5734.04443359375 -15002.4345703125 -14202.048828125 255 255 255
9431.7236328125 -22274.201171875 -17745.77734375 255 255 255
6622.65234375 -17445.625 -18133.171875 255 255 255
6622.65234375 -17445.625 -18133.171875 255 255 255
4824.28125 -16424.0390625 -13586.7412109375 255 255 255
-645.6490478515625 881.2864379882812 2415.087158203125 255 255 255
-321.9557800292969 1864.2244873046875 2607.906494140625 255 255 255
-321.9557800292969 1864.2244873046875 2607.906494140625 255 255 255
-1559.324462890625 319.3188781738281 1549.1693115234375 255 255 255
-1291.899169921875 -670.8771362304688 2177.053955078125 255 255 255
-1503.8619384765625 3130.51953125 2888.07421875 255 255 255
-2017.0841064453125 -209.7418670654297 908.430419921875 255 255 255
-2017.0841064453125 -209.7418670654297 908.430419921875 255 255 255
-63272.29296875 646025.875 908667.875 255 255 255
151172.859375 485765.375 727359.4375 255 255 255
-6079.4130859375 13832.2119140625 18126.0390625 255 255 255
-4961.53564453125 18722.0 24526.412109375 255 255 255
-8422.2734375 20662.078125 24803.052734375 255 255 255
-5904.34326171875 6272.13916015625 10519.73046875 255 255 255
-5607.36572265625 17508.0390625 17333.271484375 255 255 255
-5607.36572265625 17508.0390625 17333.271484375 255 255 255
-4328.2880859375 12903.4658203125 13601.578125 255 255 255
-5261.27734375 16929.25 16803.34765625 255 255 255
1283.0328369140625 -5543.1083984375 -5570.16259765625 255 255 255
20301.203125 -21779.150390625 -33842.48828125 255 255 255
-5940.60595703125 19414.408203125 20495.1953125 255 255 255
-58604.2578125 197377.40625 91850.0703125 255 255 255
-65905.6484375 112486.8359375 74709.1953125 255 255 255
-252580.9375 659529.25 453608.34375 255 255 255
-54199.765625 237742.640625 126688.359375 255 255 255
-27367.923828125 39600.32421875 35607.34765625 255 255 255
-48691.265625 161004.21875 76765.8203125 255 255 255
-65905.6484375 112486.8359375 74709.1953125 255 255 255
-40331.7265625 93300.109375 56498.83984375 255 255 255
-1308217.375 3071513.0 3516747.5 255 255 255
398249.875 1933729.625 2733840.0 255 255 255
398249.875 1933729.625 2733840.0 255 255 255
793.6002197265625 383.230712890625 1468.5068359375 255 255 255
-327.672607421875 -1434.275390625 -2680.6611328125 255 255 255
-509061.4375 1082276.125 1765785.75 255 255 255
-615773.625 1540442.5 1825392.625 255 255 255
-435263.15625 1249279.875 1393788.375 255 255 255
-346268.4375 1316212.125 2171771.25 255 255 255
-157.1664276123047 -238.75851440429688 -513.4475708007812 255 255 255
729.48974609375 -338.2447814941406 -2003.103271484375 255 255 255
-792.7324829101562 -1207.5562744140625 -1559.2308349609375 255 255 255
368.3322448730469 -384.93267822265625 -1074.161865234375 255 255 255
368.3322448730469 -384.93267822265625 -1074.161865234375 255 255 255
-740.7869873046875 -1264.692138671875 -1053.630126953125 255 255 255
-844.7294921875 -1089.71728515625 -1222.8499755859375 255 255 255
372.5211181640625 -997.4796142578125 -2203.32568359375 255 255 255
753.4856567382812 -1347.090087890625 -2858.206787109375 255 255 255
-39.541744232177734 -241.58978271484375 -538.8630981445312 255 255 255
-39.541744232177734 -241.58978271484375 -538.8630981445312 255 255 255
520.0257568359375 -363.1092224121094 -1357.9954833984375 255 255 255
-1367739.5 4062984.75 3639664.75 255 255 255
-1367739.5 4062984.75 3639664.75 255 255 255
-1130932.375 3688936.25 2895856.75 255 255 255
-924634.8125 2795402.75 3598380.5 255 255 255
728404.1875 -3893941.5 -2568454.5 255 255 255
305822.5625 -6583201.5 -4314664.0 255 255 255
281532.03125 -1868024.375 -1688698.125 255 255 255
454068.875 -1398141.5 -1610822.25 255 255 255
454068.875 -1398141.5 -1610822.25 255 255 255
-2460188.25 -4898450.5 -4866708.5 255 255 255
841730.75 -1846090.5 -1815327.625 255 255 255
-2825473.0 4026745.0 5686024.0 255 255 255
-1686917.5 3555066.5 3862514.75 255 255 255
-2825473.0 4026745.0 5686024.0 255 255 255
-1686917.5 3555066.5 3862514.75 255 255 255
0.33954697847366333 -0.6209099888801575 -0.7065257430076599 255 255 255
0.29388904571533203 -0.6507543325424194 -0.7001057267189026 255 255 255
2716957.25 -5470329.5 -5331515.0 255 255 255
0.4243822693824768 -0.531528115272522 -0.7330604195594788 255 255 255
-0.24009735882282257 0.6810303330421448 0.6917737722396851 255 255 255
0.28991883993148804 -0.6232022047042847 -0.7263374328613281 255 255 255
0.39563730359077454 -0.45979270339012146 -0.7950231432914734 255 255 255
0.38598111271858215 -0.557192325592041 -0.7352246642112732 255 255 255
0.39563730359077454 -0.45979270339012146 -0.7950231432914734 255 255 255
0.29388904571533203 -0.6507543325424194 -0.7001057267189026 255 255 255
0.3313126862049103 -0.5641217827796936 -0.7563058137893677 255 255 255
-0.07587694376707077 -0.5485140085220337 -0.832691490650177 255 255 255
0.38598111271858215 -0.557192325592041 -0.7352246642112732 255 255 255
0.3783949315547943 -0.6638960242271423 -0.6450266242027283 255 255 255
50302.64453125 -179852.0 -138958.328125 255 255 255
53792.51171875 -213579.53125 -139355.546875 255 255 255
50302.64453125 -179852.0 -138958.328125 255 255 255
49510.73046875 -176592.1875 -148970.90625 255 255 255
49510.73046875 -176592.1875 -148970.90625 255 255 255
45159.6484375 -148209.78125 -151783.3125 255 255 255
52064.05859375 -193160.5 -140639.875 255 255 255
51115.73046875 -188571.546875 -157407.484375 255 255 255
48299.6484375 -159298.671875 -147044.484375 255 255 255
52123.3984375 -192022.390625 -133367.875 255 255 255
813964.0625 1587524.125 1407102.75 255 255 255
-119928.671875 -554041.0 -720252.5 255 255 255
293454.40625 -2312488.0 -6897746.0 255 255 255
-11413.458984375 -353710.71875 -586153.5 255 255 255
-327339.59375 -2669337.0 -2809964.5 255 255 255
-27021.328125 -389930.90625 -598338.5 255 255 255
91835.1484375 1056460.625 798917.75 255 255 255
-662892.1875 3419403.0 2112942.25 255 255 255
16249.9541015625 -75728.1015625 -80286.140625 255 255 255
26127.388671875 -84024.3671875 -101248.2734375 255 255 255
18400.322265625 -68533.1484375 -73851.421875 255 255 255
121332.6640625 -286727.3125 -334788.03125 255 255 255
29149.767578125 -71938.2890625 -90991.15625 255 255 255
0.2848724126815796 -0.11025181412696838 -0.9522038698196411 255 255 255
-0.41633960604667664 -0.5576633214950562 -0.7181037068367004 255 255 255
-0.3649066686630249 -0.6656943559646606 -0.6509179472923279 255 255 255
-0.41633960604667664 -0.5576633214950562 -0.7181037068367004 255 255 255
-0.12032964825630188 -0.8563007712364197 -0.5022646188735962 255 255 255
0.1517518162727356 0.671574592590332 0.7252302765846252 255 255 255
-0.3930160701274872 -0.6086929440498352 -0.6892251372337341 255 255 255
0.15165628492832184 0.6715138554573059 0.725306510925293 255 255 255
-0.1701754480600357 -0.8270951509475708 -0.5356807708740234 255 255 255
0.09965663403272629 -0.77677983045578 -0.621837317943573 255 255 255
-0.279721736907959 -0.7400454878807068 -0.6116276383399963 255 255 255
0.3836015462875366 -0.12274561077356339 -0.9153050780296326 255 255 255
0.3916974365711212 -0.43947479128837585 -0.8083533048629761 255 255 255
-0.20429393649101257 -0.17587065696716309 -0.9629815816879272 255 255 255
-0.5546786785125732 0.42340266704559326 0.7162832617759705 255 255 255
0.06490696221590042 -0.9069180488586426 -0.41627728939056396 255 255 255
-1749565.625 -3764910.0 -791686.6875 255 255 255
1456.680908203125 -4179.58447265625 -7857.67431640625 255 255 255
-213.35110473632812 -640.0262451171875 -1964.641357421875 255 255 255
241.13711547851562 -285.3026123046875 -1368.4974365234375 255 255 255
1456.680908203125 -4179.58447265625 -7857.67431640625 255 255 255
162.86349487304688 -260.8804626464844 -1280.839111328125 255 255 255
511.2010498046875 -969.912109375 -2813.67529296875 255 255 255
328.6645812988281 -361.08404541015625 -2164.64697265625 255 255 255
365.973388671875 -303.531494140625 -1977.0543212890625 255 255 255
1345824.375 1085380.25 1843394.0 255 255 255
0.0533732995390892 -0.5795263648033142 -0.8132038712501526 255 255 255
0.28014153242111206 -0.38095414638519287 -0.8811326026916504 255 255 255
0.07893510907888412 -0.5693858861923218 -0.8182719349861145 255 255 255
0.052730292081832886 -0.5928090214729309 -0.8036149144172668 255 255 255
0.2538578510284424 -0.562308132648468 -0.78699791431427 255 255 255
0.05894783139228821 -0.5801900029182434 -0.8123452067375183 255 255 255
-0.0018402968998998404 -0.6203368902206421 -0.784333348274231 255 255 255
-0.0016962323570623994 -0.6032397150993347 -0.7975581288337708 255 255 255
0.25844699144363403 -0.37890517711639404 -0.8886146545410156 255 255 255
0.047548070549964905 -0.5976127982139587 -0.8003737330436707 255 255 255
0.2538578510284424 -0.562308132648468 -0.78699791431427 255 255 255
0.33950304985046387 -0.42400121688842773 -0.8396193385124207 255 255 255
-0.006859432440251112 -0.6150463223457336 -0.7884611487388611 255 255 255
0.30259421467781067 -0.5108587741851807 -0.8046489953994751 255 255 255
0.10173404216766357 -0.5769115686416626 -0.8104463219642639 255 255 255
0.28578832745552063 -0.4337463676929474 -0.854511022567749 255 255 255
0.3296129107475281 -0.423431932926178 -0.8438369035720825 255 255 255
0.38971641659736633 -0.34571439027786255 -0.8535822629928589 255 255 255
0.035047370940446854 -0.6010338664054871 -0.7984547019004822 255 255 255
0.1774604618549347 -0.5850144624710083 -0.791369616985321 255 255 255
0.16241081058979034 -0.5515683889389038 -0.81816565990448 255 255 255
0.336333692073822 -0.3978723883628845 -0.853567361831665 255 255 255
0.31612759828567505 -0.28770920634269714 -0.9040391445159912 255 255 255
0.07052972167730331 -0.5833991169929504 -0.8091174364089966 255 255 255
-0.30325713753700256 -0.5828782916069031 -0.7538487911224365 255 255 255
0.2538578510284424 -0.562308132648468 -0.78699791431427 255 255 255
0.26624488830566406 -0.4730479419231415 -0.839844822883606 255 255 255
0.22768771648406982 -0.5880524516105652 -0.7761138081550598 255 255 255
0.1988627314567566 -0.5564125776290894 -0.8067581057548523 255 255 255
0.22271756827831268 -0.58631432056427 -0.7788661122322083 255 255 255
0.3081073462963104 -0.431639164686203 -0.8477956652641296 255 255 255
0.2716439664363861 -0.5020566582679749 -0.8210655450820923 255 255 255
0.07474760711193085 -0.5850340127944946 -0.8075568079948425 255 255 255
0.27982890605926514 -0.3387417793273926 -0.8983038663864136 255 255 255
0.24020248651504517 -0.38132843375205994 -0.8926877379417419 255 255 255
0.41444292664527893 -0.260069340467453 -0.872124433517456 255 255 255
0.196024551987648 -0.5655174851417542 -0.8011019825935364 255 255 255
0.1774604618549347 -0.5850144624710083 -0.791369616985321 255 255 255
0.3416639566421509 -0.4175373911857605 -0.8419787883758545 255 255 255
0.25763562321662903 -0.3575582504272461 -0.8976502418518066 255 255 255
-0.13114750385284424 -0.6255477666854858 -0.7690840363502502 255 255 255
0.3198024034500122 -0.4251144826412201 -0.8467609286308289 255 255 255
0.06014970317482948 -0.5984567999839783 -0.7988938689231873 255 255 255
0.21385298669338226 -0.5859574675559998 -0.7816141843795776 255 255 255
0.34323790669441223 -0.3939022123813629 -0.8526598215103149 255 255 255
0.06703954190015793 -0.5669443011283875 -0.8210236430168152 255 255 255
0.029932474717497826 -0.6134895086288452 -0.7891353964805603 255 255 255
-0.2550375163555145 -0.5967581272125244 -0.7608124613761902 255 255 255
0.3170478940010071 -0.2809440493583679 -0.9058427214622498 255 255 255
0.2022569626569748 -0.5836993455886841 -0.7863759994506836 255 255 255
0.07919913530349731 -0.5861712098121643 -0.8063068985939026 255 255 255
0.2819664478302002 -0.3466149866580963 -0.8946244716644287 255 255 255
0.26624488830566406 -0.4730479419231415 -0.839844822883606 255 255 255
0.38128894567489624 -0.35945671796798706 -0.85170978307724 255 255 255
0.3492794334888458 -0.3144906163215637 -0.8826661705970764 255 255 255
0.0807141587138176 -0.5847209692001343 -0.8072091341018677 255 255 255
0.25763562321662903 -0.3575582504272461 -0.8976502418518066 255 255 255
0.36512064933776855 -0.3997586667537689 -0.8407614827156067 255 255 255
0.3513786792755127 -0.39509662985801697 -0.848782479763031 255 255 255
0.2022569626569748 -0.5836993455886841 -0.7863759994506836 255 255 255
0.3092062771320343 -0.3759238123893738 -0.8735403418540955 255 255 255
0.3599683940410614 -0.41335317492485046 -0.836398184299469 255 255 255
0.28092271089553833 -0.559161901473999 -0.7800130844116211 255 255 255
0.276429146528244 -0.351420134305954 -0.8944779634475708 255 255 255
0.5152924656867981 -0.20240001380443573 -0.8327711820602417 255 255 255
0.5515827536582947 -0.09257794171571732 -0.8289666771888733 255 255 255
0.0015212392900139093 -0.605088472366333 -0.7961567640304565 255 255 255
0.3326253294944763 -0.4882171154022217 -0.8068484663963318 255 255 255
-0.13198088109493256 -0.1459166258573532 -0.9804536700248718 255 255 255
0.3326253294944763 -0.4882171154022217 -0.8068484663963318 255 255 255
-0.09247232228517532 -0.6801659464836121 -0.727202296257019 255 255 255
-0.04117712378501892 -0.9691669344902039 -0.24294015765190125 255 255 255
-0.17769214510917664 -0.4640996754169464 -0.8677770495414734 255 255 255
-0.17769214510917664 -0.4640996754169464 -0.8677770495414734 255 255 255
-0.15332801640033722 -0.49143484234809875 -0.8573111295700073 255 255 255
-0.15332801640033722 -0.49143484234809875 -0.8573111295700073 255 255 255
-0.17611686885356903 -0.4663822650909424 -0.8668739199638367 255 255 255
-0.16207653284072876 -0.48329073190689087 -0.8603262901306152 255 255 255
-0.17611686885356903 -0.4663822650909424 -0.8668739199638367 255 255 255
-0.16207653284072876 -0.48329073190689087 -0.8603262901306152 255 255 255
-0.16971230506896973 -0.4749295711517334 -0.8635042905807495 255 255 255
-0.16971230506896973 -0.4749295711517334 -0.8635042905807495 255 255 255
-0.17171424627304077 -0.4725508391857147 -0.8644130229949951 255 255 255
-0.18232272565364838 -0.45585665106773376 -0.8711791634559631 255 255 255
0.08764974027872086 -0.45593735575675964 -0.885685384273529 255 255 255
-0.1924854815006256 -0.44575947523117065 -0.8742126822471619 255 255 255
-0.19328640401363373 -0.4436933696269989 -0.8750866055488586 255 255 255
-0.1924854815006256 -0.44575947523117065 -0.8742126822471619 255 255 255
-0.1904674917459488 -0.44791027903556824 -0.8735551238059998 255 255 255
-0.19188788533210754 -0.44651588797569275 -0.8739579916000366 255 255 255
-0.19328640401363373 -0.4436933696269989 -0.8750866055488586 255 255 255
-0.18934662640094757 -0.45432353019714355 -0.8704814314842224 255 255 255
0.1406606286764145 -0.5749741792678833 -0.8059896230697632 255 255 255
-0.18934662640094757 -0.45432353019714355 -0.8704814314842224 255 255 255
-0.16565857827663422 -0.48054781556129456 -0.8611800074577332 255 255 255
-0.1468086838722229 -0.49788424372673035 -0.8547271490097046 255 255 255
-0.19397573173046112 -0.4432041347026825 -0.8751819729804993 255 255 255
0.3164568841457367 -0.6730180978775024 -0.6685070395469666 255 255 255
-0.19397573173046112 -0.4432041347026825 -0.8751819729804993 255 255 255
-0.1482616811990738 -0.4959105849266052 -0.8556232452392578 255 255 255
-0.16806164383888245 -0.47751888632774353 -0.8623983860015869 255 255 255
-0.024256451055407524 -0.5733544826507568 -0.8189482688903809 255 255 255
0.3573662042617798 -0.37839949131011963 -0.8538753986358643 255 255 255
-272714.375 -2741.95166015625 -591143.875 255 255 255
-45022.1015625 -22650.0546875 -140929.078125 255 255 255
23419.0390625 -46927.37890625 -75208.6484375 255 255 255
-47036.4296875 -47733.12109375 -119567.6015625 255 255 255
-26900.998046875 -40103.32421875 -118537.7265625 255 255 255
8157.0791015625 -32568.25390625 -76846.875 255 255 255
23816.626953125 -41770.8203125 -77936.1015625 255 255 255
-35757.33984375 -24875.931640625 -170146.15625 255 255 255
-19987.8046875 -39320.52734375 -113153.0625 255 255 255
12178.318359375 -38662.05078125 -109061.1796875 255 255 255
-48322.04296875 -28705.234375 -135372.46875 255 255 255
3820.8056640625 -29917.162109375 -123989.8515625 255 255 255
26933.044921875 -31843.23828125 -75141.78125 255 255 255
-59779.50390625 -17407.515625 -158090.578125 255 255 255
-59779.50390625 -17407.515625 -158090.578125 255 255 255
-36845.41015625 -41705.453125 -125230.34375 255 255 255
-62029.7265625 -46986.78125 -133300.34375 255 255 255
-62029.7265625 -46986.78125 -133300.34375 255 255 255
14607.63671875 -35137.68359375 -128823.7265625 255 255 255
-57616.421875 -53534.8828125 -85278.6640625 255 255 255
-17780.451171875 -44910.7578125 -105345.265625 255 255 255
-32644.521484375 -48325.2265625 -86399.40625 255 255 255
-21696.650390625 -39287.90234375 -119325.40625 255 255 255
9801.24609375 -34652.796875 -116904.2421875 255 255 255
-19558.9296875 -42142.7890625 -100224.09375 255 255 255
9403.94140625 -33230.19140625 -101460.5703125 255 255 255
-178266.859375 -48343.51171875 -280377.6875 255 255 255
2344.11767578125 -38555.46484375 -115219.078125 255 255 255
-34837.98828125 -44048.640625 -104786.6171875 255 255 255
-162568.9375 163002.453125 -420091.15625 255 255 255
-801305.8125 599364.5625 -1149047.5 255 255 255
-253256.078125 214819.125 -582011.375 255 255 255
-267846.625 82942.1484375 -498822.4375 255 255 255
-47441.77734375 -26214.888671875 -121994.359375 255 255 255
-397068.15625 320955.53125 -876450.0625 255 255 255
-47441.77734375 -26214.888671875 -121994.359375 255 255 255
-59701.6015625 -33692.88671875 -120688.09375 255 255 255
-397068.15625 320955.53125 -876450.0625 255 255 255
-116639.2109375 58916.14453125 -294027.03125 255 255 255
-290881.4375 165941.453125 -682277.375 255 255 255
-58545.78125 -27572.240234375 -139119.65625 255 255 255
-282751.6875 50950.78125 -712546.9375 255 255 255
-68178.4609375 -45837.70703125 -86476.3203125 255 255 255
-68178.4609375 -45837.70703125 -86476.3203125 255 255 255
-66709.1640625 -43648.4609375 -122669.03125 255 255 255
-66709.1640625 -43648.4609375 -122669.03125 255 255 255
-50013.58984375 -44091.14453125 -85426.234375 255 255 255
-50013.58984375 -44091.14453125 -85426.234375 255 255 255
3312.311767578125 -52217.79296875 -79221.8515625 255 255 255
27743.068359375 -59741.48046875 -28985.39453125 255 255 255
12494.87109375 -37424.328125 -53256.95703125 255 255 255
23670.09375 -68997.6171875 -51765.8359375 255 255 255
12494.87109375 -37424.328125 -53256.95703125 255 255 255
11776.265625 -64564.40625 -51144.5078125 255 255 255
20041.111328125 -52781.0546875 -41267.171875 255 255 255
54809.43359375 -65869.5234375 -40435.3515625 255 255 255
40282.9375 -77304.9609375 -28308.490234375 255 255 255
4891.19775390625 -63403.9609375 -67086.234375 255 255 255
8456.232421875 -61605.8828125 -64514.76171875 255 255 255
8895.0263671875 -60525.25390625 -57223.296875 255 255 255
21475.5703125 -24918.0703125 -35943.52734375 255 255 255
14029.9892578125 -51999.45703125 -57156.47265625 255 255 255
30760.98828125 -50768.8203125 -40241.640625 255 255 255
-595.523681640625 -55165.734375 -51614.16015625 255 255 255
1129.8294677734375 -47310.3984375 -74461.453125 255 255 255
1129.8294677734375 -47310.3984375 -74461.453125 255 255 255
-4563.7529296875 -32650.740234375 -51721.91796875 255 255 255
23730.345703125 -45568.78515625 -78791.2109375 255 255 255
-15187.578125 -50522.5859375 -95271.578125 255 255 255
23730.345703125 -45568.78515625 -78791.2109375 255 255 255
20391.29296875 -49490.8359375 -73689.6875 255 255 255
16346.37109375 -51463.72265625 -64013.734375 255 255 255
-6435.396484375 -38451.29296875 -108714.546875 255 255 255
10017.9775390625 -35063.76953125 -65460.05078125 255 255 255
18195.556640625 -33998.40234375 -79094.828125 255 255 255
8543.798828125 -52420.79296875 -80420.890625 255 255 255
25407.794921875 -50121.0859375 -73055.734375 255 255 255
20579.056640625 -41868.63671875 -57742.78515625 255 255 255
2115853.5 -375185.21875 3755108.0 255 255 255
2316237.75 -1041437.0625 4881260.5 255 255 255
828996.9375 -684823.875 2553204.75 255 255 255
-27940.24609375 -55246.5078125 -162304.875 255 255 255
-887807.5 46859.2578125 -1185202.625 255 255 255
-30699.609375 -27456.58984375 -104775.296875 255 255 255
-120237.90625 6824.01904296875 -258315.03125 255 255 255
-260363.203125 169180.484375 -528209.3125 255 255 255
242157.859375 35253.7265625 206555.53125 255 255 255
242157.859375 35253.7265625 206555.53125 255 255 255
4257792.5 2265649.25 5502943.0 255 255 255
-26602.173828125 -40770.44921875 -124681.0234375 255 255 255
-18743.6015625 -39726.14453125 -129356.5390625 255 255 255
-10637.5986328125 -29521.27734375 -194031.578125 255 255 255
-24184.708984375 -33260.69921875 -120758.359375 255 255 255
-24184.708984375 -33260.69921875 -120758.359375 255 255 255
-18879.29296875 -14996.0625 -150358.4375 255 255 255
-18879.29296875 -14996.0625 -150358.4375 255 255 255
-8102.51953125 -5138.02685546875 -204459.296875 255 255 255
-768.5051879882812 -25812.50390625 -86831.5 255 255 255
-21249.876953125 -24736.5234375 -172025.75 255 255 255
-16319.9970703125 -7861.9130859375 -184660.96875 255 255 255
-19681.72265625 -35281.32421875 -138160.71875 255 255 255
-16319.9970703125 -7861.9130859375 -184660.96875 255 255 255
-21855.916015625 -55751.1015625 -104227.6484375 255 255 255
-65147.2890625 -61462.7578125 -145839.46875 255 255 255
-153136.390625 -87009.9609375 -349368.15625 255 255 255
-8384.86328125 -59487.92578125 -79704.84375 255 255 255
39565.51171875 -47139.40625 -92033.1171875 255 255 255
-32782.4609375 -70164.0859375 -46310.55078125 255 255 255
44943.95703125 -49220.70703125 -91141.5 255 255 255
21498.888671875 -38636.8984375 -110450.5546875 255 255 255
39565.51171875 -47139.40625 -92033.1171875 255 255 255
42974.1484375 -27864.591796875 -45218.93359375 255 255 255
45866.24609375 -32155.4765625 -58898.96484375 255 255 255
65837.9453125 -27341.7734375 -134441.9375 255 255 255
2588147.0 -2409374.5 3555254.5 255 255 255
1394775.5 -967416.4375 1812858.5 255 255 255
1394775.5 -967416.4375 1812858.5 255 255 255
1354909.5 -1197182.25 1643360.5 255 255 255
1354909.5 -1197182.25 1643360.5 255 255 255
-0.3047713041305542 0.08236636221408844 -0.948857307434082 255 255 255
-0.43032413721084595 -0.06600375473499298 -0.9002580642700195 255 255 255
-0.2691935896873474 -0.29531991481781006 -0.9166902303695679 255 255 255
-0.3539930582046509 -0.2518424987792969 -0.9007021188735962 255 255 255
3759854.75 -2271539.0 6704559.0 255 255 255
504231.75 2843284.75 -5313084.0 255 255 255
0.2179774045944214 0.2102140486240387 -0.9530456066131592 255 255 255
-0.3268790543079376 0.10746027529239655 -0.9389368295669556 255 255 255
-0.3818884491920471 -0.24048855900764465 -0.8923712372779846 255 255 255
0.09107852727174759 0.08413861691951752 -0.9922829270362854 255 255 255
-0.1436266005039215 -0.19410599768161774 -0.9704093337059021 255 255 255
-0.15930460393428802 -0.10998741537332535 -0.9810835123062134 255 255 255
-1847991.875 1610698.5 -4121961.0 255 255 255
3759854.75 -2271539.0 6704559.0 255 255 255
-0.28798046708106995 0.018011271953582764 -0.9574669003486633 255 255 255
-34015.83203125 -161355.65625 -426261.53125 255 255 255
-94617.828125 -190275.015625 -537089.0 255 255 255
722921.0 -210485.34375 1096290.625 255 255 255
648672.0 -155892.3125 808275.875 255 255 255
1027236.8125 -495810.40625 1234758.5 255 255 255
1166829.625 -533015.0625 1395767.0 255 255 255
438812.6875 -12095.2451171875 450400.875 255 255 255
-1218652.625 2364694.0 -3798163.0 255 255 255
8074.8369140625 -58910.921875 -68904.1171875 255 255 255
11270.1630859375 -49885.23828125 -68385.7421875 255 255 255
11270.1630859375 -49885.23828125 -68385.7421875 255 255 255
7336.88671875 -58623.96484375 -69164.765625 255 255 255
-1675.651611328125 -52990.64453125 -66268.0234375 255 255 255
9706.513671875 -55217.41796875 -68110.0234375 255 255 255
3288.7509765625 -60689.6484375 -71447.3203125 255 255 255
11796.2646484375 -51696.69921875 -70929.265625 255 255 255
2778.281494140625 -58023.5234375 -67679.2109375 255 255 255
11595.6044921875 -55581.515625 -78073.5390625 255 255 255
8489.62890625 -59566.3984375 -71767.796875 255 255 255
12658.1533203125 -52593.6171875 -73178.9921875 255 255 255
6896.34912109375 -55633.57421875 -66538.2421875 255 255 255
-1042.27734375 -55009.0 -70173.3515625 255 255 255
-62660.15234375 -73938.53125 -105050.984375 255 255 255
-14587.341796875 -57681.89453125 -42866.8359375 255 255 255
-24722.52734375 -72287.546875 -48801.71875 255 255 255
-38270.51953125 -66155.0 -90262.4921875 255 255 255
-32407.111328125 -71255.8203125 -81944.7421875 255 255 255
-14774.8076171875 -71553.4453125 -37177.890625 255 255 255
-122376.3515625 -162426.125 -202673.9375 255 255 255
-13436.08203125 -33215.9765625 -33203.08984375 255 255 255
-17463.76171875 -61788.375 -46525.703125 255 255 255
-122376.3515625 -162426.125 -202673.9375 255 255 255
-32997.16796875 -67888.1328125 -78043.953125 255 255 255
-21458.68359375 -65937.8515625 -40748.6171875 255 255 255
-37257.03125 -74660.515625 -93168.21875 255 255 255
25467.92578125 5546.83544921875 20186.28515625 255 255 255
40506.953125 18211.228515625 38648.1328125 255 255 255
25467.92578125 5546.83544921875 20186.28515625 255 255 255
280285.0625 -30989.744140625 393982.40625 255 255 255
280285.0625 -30989.744140625 393982.40625 255 255 255
125886.2734375 -9913.0556640625 109986.671875 255 255 255
41973.35546875 2238.7734375 30437.94140625 255 255 255
-0.4763997495174408 0.03685842081904411 -0.8784558773040771 255 255 255
-0.4763997495174408 0.03685842081904411 -0.8784558773040771 255 255 255
-0.6441060900688171 0.06572211533784866 -0.7621075510978699 255 255 255
-0.25280871987342834 0.3461580276489258 -0.9034724235534668 255 255 255
-0.44400641322135925 0.1805281937122345 -0.8776490688323975 255 255 255
-0.44400641322135925 0.1805281937122345 -0.8776490688323975 255 255 255
-0.6981139183044434 -0.06292783468961716 -0.7132160067558289 255 255 255
-0.5373751521110535 0.2826109826564789 -0.7945809960365295 255 255 255
-0.131202831864357 0.09484489262104034 -0.9868081212043762 255 255 255
-0.47421813011169434 0.08454609662294388 -0.8763384819030762 255 255 255
-0.6618543863296509 0.18188507854938507 -0.7272320985794067 255 255 255
-0.6573232412338257 -0.13793523609638214 -0.7408778667449951 255 255 255
-0.6307186484336853 -0.0014749143738299608 -0.7760101556777954 255 255 255
-0.6618543863296509 0.18188507854938507 -0.7272320985794067 255 255 255
-0.44314825534820557 -0.14128616452217102 -0.8852444887161255 255 255 255
-0.47641468048095703 -0.4659024477005005 -0.7456299066543579 255 255 255
-4487047.0 -1582496.25 -5997589.5 255 255 255
-4487047.0 -1582496.25 -5997589.5 255 255 255
-4487047.0 -1582496.25 -5997589.5 255 255 255
-148602.75 -164965.765625 -1093663.125 255 255 255
-148602.75 -164965.765625 -1093663.125 255 255 255
-42193.90234375 -80152.8828125 -405179.5 255 255 255
-71625.3515625 -113037.8125 -631316.5 255 255 255
-115680.15625 -131725.140625 -844203.375 255 255 255
-9020.6923828125 -50705.46875 -223177.15625 255 255 255
2317.2177734375 -28718.125 -111199.1015625 255 255 255
-1931.21826171875 -39618.3671875 -170940.46875 255 255 255
-10720.7587890625 -15331.6923828125 -149099.78125 255 255 255
-36218.5234375 -56055.7890625 -258855.84375 255 255 255
-23598.046875 -55844.609375 -242636.984375 255 255 255
-28196.13671875 -34034.1171875 -145525.09375 255 255 255
-108461.140625 -282098.84375 -1559055.75 255 255 255
-17897.9921875 -46451.90234375 -171013.265625 255 255 255
-3884.92333984375 -17873.544921875 -143926.03125 255 255 255
-1726.0565185546875 -11156.013671875 -9028.8818359375 255 255 255
-1521.3275146484375 -28059.615234375 -23585.6953125 255 255 255
-1521.3275146484375 -28059.615234375 -23585.6953125 255 255 255
-10733.8857421875 -18672.759765625 -5985.08935546875 255 255 255
-16964.9296875 -29442.75390625 -8145.88037109375 255 255 255
-4345.46142578125 -23015.787109375 -15244.3671875 255 255 255
-10644.7998046875 -26344.01171875 -12722.078125 255 255 255
-15786.0107421875 -28676.646484375 -8867.453125 255 255 255
-15317.171875 -28414.37109375 -9203.6728515625 255 255 255
-1395.90771484375 -21592.27734375 -15998.208984375 255 255 255
-14078.9716796875 -24348.15625 -6751.81201171875 255 255 255
-3891.095947265625 -21072.75390625 -13838.8515625 255 255 255
-13185.24609375 -27119.091796875 -10495.939453125 255 255 255
-1464.6396484375 -28403.8203125 -24196.92578125 255 255 255
-3891.095947265625 -21072.75390625 -13838.8515625 255 255 255
-7573.42724609375 -25022.75390625 -14513.71875 255 255 255
-17635.39453125 -30613.423828125 -8690.4365234375 255 255 255
-14803.880859375 -21535.03125 -3946.7822265625 255 255 255
-11637.03125 -26413.16015625 -11599.95703125 255 255 255
-14462.125 -29999.919921875 -12578.947265625 255 255 255
-12911.6689453125 -24402.25390625 -8136.30810546875 255 255 255
-10018.583984375 -27416.970703125 -14835.5146484375 255 255 255
-266599.0625 -102111.375 -337407.125 255 255 255
-10018.583984375 -27416.970703125 -14835.5146484375 255 255 255
-40596.13671875 -54239.49609375 -37517.69921875 255 255 255
-0.381771981716156 -0.047384217381477356 -0.9230411052703857 255 255 255
-0.3151601254940033 0.11337032169103622 -0.9422426819801331 255 255 255
-0.3907664120197296 -0.050196267664432526 -0.919120192527771 255 255 255
-0.4612160921096802 0.1401648372411728 -0.8761469721794128 255 255 255
-0.3448850214481354 0.05864559859037399 -0.936811089515686 255 255 255
-0.2028937190771103 0.07933507114648819 -0.975981593132019 255 255 255
-0.20820403099060059 0.07374545186758041 -0.9753013253211975 255 255 255
-0.4612160921096802 0.1401648372411728 -0.8761469721794128 255 255 255
-0.3476993143558502 0.059486936777830124 -0.9357171058654785 255 255 255
-0.47684863209724426 0.11650151759386063 -0.8712306022644043 255 255 255
-0.34995314478874207 0.04564334824681282 -0.9356545805931091 255 255 255
-0.3428037762641907 0.03492017090320587 -0.9387577772140503 255 255 255
-0.3376345932483673 -0.007544951979070902 -0.9412470459938049 255 255 255
-0.34662625193595886 0.06430459022521973 -0.9357965588569641 255 255 255
-0.22768770158290863 0.054469265043735504 -0.9722095727920532 255 255 255
-0.32656437158584595 0.05773923918604851 -0.9434097409248352 255 255 255
-0.47062864899635315 0.07514429092407227 -0.879125714302063 255 255 255
-0.3428037762641907 0.03492017090320587 -0.9387577772140503 255 255 255
-0.3206741213798523 0.11880277842283249 -0.9397095441818237 255 255 255
-0.34335318207740784 -0.05397073179483414 -0.9376543760299683 255 255 255
-0.4347936511039734 -0.0028730242047458887 -0.9005255103111267 255 255 255
-0.3347392976284027 0.06265491992235184 -0.9402254819869995 255 255 255
-0.38777345418930054 -0.06356272846460342 -0.9195604920387268 255 255 255
-0.34329384565353394 0.0643373653292656 -0.9370219111442566 255 255 255
-0.35002362728118896 0.09181199222803116 -0.9322306513786316 255 255 255
-0.39226922392845154 -0.06666481494903564 -0.9174315333366394 255 255 255
-0.20720259845256805 0.43375423550605774 -0.876883327960968 255 255 255
-0.550467848777771 0.21117383241653442 -0.8077071309089661 255 255 255
-0.3451618552207947 0.0631609559059143 -0.9364154934883118 255 255 255
-0.37959909439086914 0.14248360693454742 -0.9141132235527039 255 255 255
-0.3693118989467621 0.3811377286911011 -0.8475510478019714 255 255 255
-0.37976932525634766 -0.07694482058286667 -0.9218756556510925 255 255 255
-0.33579203486442566 -0.033536385744810104 -0.9413389563560486 255 255 255
-0.5664358735084534 0.2264183610677719 -0.7923920154571533 255 255 255
-0.2519042491912842 0.3629665970802307 -0.8971061706542969 255 255 255
-0.5630095601081848 0.2874024510383606 -0.7748677730560303 255 255 255
-0.20720259845256805 0.43375423550605774 -0.876883327960968 255 255 255
-0.37284767627716064 -0.0775134339928627 -0.9246492981910706 255 255 255
-0.42037567496299744 0.2014903575181961 -0.8846954107284546 255 255 255
-0.45586901903152466 -0.09656810015439987 -0.8847926259040833 255 255 255
-0.22480447590351105 -0.3504510819911957 -0.9092012643814087 255 255 255
-0.193148672580719 -0.34481075406074524 -0.9185854196548462 255 255 255
-0.12586061656475067 -0.41714608669281006 -0.9000823497772217 255 255 255
-0.16015228629112244 -0.3314264416694641 -0.9297890663146973 255 255 255
-0.1900780200958252 -0.0008025251445360482 -0.9817686676979065 255 255 255
3483426.75 255416.75 4651445.5 255 255 255
-0.6024872064590454 0.06042027845978737 -0.7958382964134216 255 255 255
-0.1659984439611435 -0.37954553961753845 -0.910159170627594 255 255 255
3197427.0 59257.27734375 4351199.0 255 255 255
-162879.953125 83127.578125 -1141968.75 255 255 255
3612011.75 -1605151.5 5912885.0 255 255 255
1229763.5 -2184166.5 3609571.75 255 255 255
955147.5 -1091636.375 1923290.125 255 255 255
684629.75 -253165.640625 -3658963.5 255 255 255
-0.5311996936798096 0.12638087570667267 -0.8377677202224731 255 255 255
3097.42529296875 -46048.3125 -60539.12109375 255 255 255
10144.5888671875 -38964.49609375 -61074.94140625 255 255 255
2334.5048828125 -44836.4765625 -60795.5703125 255 255 255
2334.5048828125 -44836.4765625 -60795.5703125 255 255 255
9353.666015625 -27378.560546875 -23296.880859375 255 255 255
28236.025390625 -71541.4140625 -51956.8046875 255 255 255
26189.755859375 -52883.30859375 -55449.62109375 255 255 255
5260.08447265625 -38155.40234375 -66280.0390625 255 255 255
23793.96484375 -62365.5703125 -61602.90625 255 255 255
8999.248046875 -38707.875 -63910.30078125 255 255 255
28263.84765625 -49396.0390625 -71424.546875 255 255 255
12580.80859375 -57647.76953125 -47267.98046875 255 255 255
23493.787109375 -52649.234375 -73227.6953125 255 255 255
21467.333984375 -56739.484375 -69900.140625 255 255 255
23793.96484375 -62365.5703125 -61602.90625 255 255 255
7104.919921875 -58013.46484375 -70200.9453125 255 255 255
-24.5380859375 -79.1857681274414 -199.35157775878906 255 255 255
-172.607177734375 -98.57225036621094 -532.6832275390625 255 255 255
-148.9180145263672 -61.33351135253906 -237.69015502929688 255 255 255
-24.5380859375 -79.1857681274414 -199.35157775878906 255 255 255
-184.00018310546875 -39.3658447265625 -324.490478515625 255 255 255
-178.44796752929688 -71.5062484741211 -256.0715637207031 255 255 255
-92.76632690429688 -99.30139923095703 -211.27978515625 255 255 255
-273.03173828125 -26.883325576782227 -1372.9600830078125 255 255 255
-116.61669158935547 -90.9860610961914 -256.32989501953125 255 255 255
-116.61669158935547 -90.9860610961914 -256.32989501953125 255 255 255
-148.846435546875 -84.43216705322266 -244.66598510742188 255 255 255
21.18250274658203 -97.39796447753906 -220.6887664794922 255 255 255
-90.3841323852539 -99.55902862548828 -231.72708129882812 255 255 255
-168.1623077392578 -67.96857452392578 -222.67446899414062 255 255 255
-195.38294982910156 -54.644840240478516 -386.8480224609375 255 255 255
-216.92800903320312 -90.7513427734375 -415.1528625488281 255 255 255
-219.28208923339844 -91.54618835449219 -419.62664794921875 255 255 255
-20.641948699951172 -6.373105049133301 -964.765869140625 255 255 255
567.5025634765625 -361.668212890625 -2818.578125 255 255 255
-200.0157928466797 -26.906116485595703 -337.2650146484375 255 255 255
-200.0157928466797 -26.906116485595703 -337.2650146484375 255 255 255
-133.04315185546875 -82.41710662841797 -490.8378601074219 255 255 255
-54.54772186279297 -92.84033203125 -458.9275207519531 255 255 255
-114.2034912109375 -101.9156494140625 -249.55084228515625 255 255 255
-61.07500457763672 -63.25632095336914 -330.9771423339844 255 255 255
-97.45408630371094 -39.02484130859375 -250.92861938476562 255 255 255
-202.16928100585938 -114.2320785522461 -154.7361297607422 255 255 255
-81.67768859863281 171.9612274169922 -320.8995666503906 255 255 255
-81.67768859863281 171.9612274169922 -320.8995666503906 255 255 255
-190.14295959472656 77.83132934570312 -373.3817443847656 255 255 255
-2074.4365234375 1864.292236328125 -1707.000244140625 255 255 255
-212.83656311035156 69.77130126953125 -179.92164611816406 255 255 255
-209.92721557617188 54.605377197265625 -312.975830078125 255 255 255
-212.83656311035156 69.77130126953125 -179.92164611816406 255 255 255
-200.67127990722656 67.42847442626953 -343.28668212890625 255 255 255
-207.44747924804688 147.7608642578125 -150.44015502929688 255 255 255
-200.67127990722656 67.42847442626953 -343.28668212890625 255 255 255
-229.01007080078125 31.310976028442383 -306.98590087890625 255 255 255
-224.68765258789062 6.260031223297119 -282.66571044921875 255 255 255
7807.8837890625 -2992.314697265625 3723.320556640625 255 255 255
-2413.837890625 1294.769287109375 -6428.6552734375 255 255 255
-2759.970703125 568.3975830078125 -6819.03125 255 255 255
-2413.837890625 1294.769287109375 -6428.6552734375 255 255 255
-2705.503662109375 1712.343994140625 8234.693359375 255 255 255
692.5833740234375 2418.128662109375 996.5676879882812 255 255 255
-2705.503662109375 1712.343994140625 8234.693359375 255 255 255
692.5833740234375 2418.128662109375 996.5676879882812 255 255 255
143.22340393066406 2992.65673828125 2175.8388671875 255 255 255
-1101.3758544921875 -3053.385498046875 4294.54638671875 255 255 255
5851.29443359375 -4726.66455078125 4921.2236328125 255 255 255
2542.634521484375 -3365.59716796875 2023.4376220703125 255 255 255
-1898.2430419921875 1705.6656494140625 5900.9345703125 255 255 255
1263.4171142578125 9965.6806640625 5784.18798828125 255 255 255
-1592.4215087890625 3194.814208984375 7556.19677734375 255 255 255
5520.6591796875 -24834.6328125 -38335.81640625 255 255 255
13260.3994140625 -9370.244140625 -32884.44921875 255 255 255
218.26597595214844 -1410.0789794921875 5723.03369140625 255 255 255
192369.6875 -73113.9765625 617388.0 255 255 255
192369.6875 -73113.9765625 617388.0 255 255 255
-3298.35205078125 579.4168701171875 -4117.44189453125 255 255 255
-2752.34130859375 430.8634948730469 -1874.9296875 255 255 255
-2506.769287109375 1097.8309326171875 -2544.436279296875 255 255 255
-2518.75439453125 623.1089477539062 -1207.6541748046875 255 255 255
-587.4200439453125 -445.1751403808594 882.2826538085938 255 255 255
-1215.76025390625 -976.385498046875 4467.0244140625 255 255 255
-255327.34375 40102.2421875 1091082.25 255 255 255
801.309814453125 1483.8134765625 -21156.978515625 255 255 255
-1309.1982421875 12760.451171875 17936.720703125 255 255 255
598.1202392578125 18.93334197998047 -2702.36865234375 255 255 255
3438.219970703125 58.499168395996094 -12968.8330078125 255 255 255
-1455.73828125 -258.7954406738281 -141.176513671875 255 255 255
1917.5660400390625 5156.87109375 -6121.98388671875 255 255 255
1917.5660400390625 5156.87109375 -6121.98388671875 255 255 255
6190.10595703125 -2380.123046875 1918.7928466796875 255 255 255
6924.5 -2867.887451171875 4352.998046875 255 255 255
3876.879638671875 -9248.685546875 37943.65234375 255 255 255
2173.3125 2766.986328125 -5559.9453125 255 255 255
-16003.4033203125 -2370.13818359375 -31505.14453125 255 255 255
2573.684814453125 1814.82568359375 -4483.1015625 255 255 255
6304.05322265625 -4003.3994140625 704.5794067382812 255 255 255
6924.5 -2867.887451171875 4352.998046875 255 255 255
2415.29443359375 1211.4346923828125 -7552.59326171875 255 255 255
-4331.13818359375 1452.693115234375 -2225.923095703125 255 255 255
-18339.537109375 51059.09375 -20542.169921875 255 255 255
27069.30859375 1692502.625 3494701.25 255 255 255
1905453.875 -4506764.0 6781905.0 255 255 255
5358.82861328125 -29880.599609375 -169893.734375 255 255 255
-138038.125 114910.6015625 -351592.5625 255 255 255
5386.85302734375 -16285.734375 -54486.34375 255 255 255
-291.2589416503906 180.5418701171875 -3561.067626953125 255 255 255
-108.02076721191406 -76.97490692138672 -326.63726806640625 255 255 255
-224.930419921875 -134.05125427246094 -530.0438842773438 255 255 255
-203.48548889160156 -166.3365478515625 -509.58984375 255 255 255
2375.5283203125 -2584.14794921875 -14749.8046875 255 255 255
-125.41822814941406 -80.00241088867188 -393.649658203125 255 255 255
1680250.375 -386382.96875 655692.0625 255 255 255
1680250.375 -386382.96875 655692.0625 255 255 255
1521396.125 -823755.0625 743183.25 255 255 255
-379283.625 2262337.5 2762805.25 255 255 255
-182722.59375 -1669431.25 -2640117.75 255 255 255
-182722.59375 -1669431.25 -2640117.75 255 255 255
620551.5 -784187.5 -2872933.5 255 255 255
-6359679.0 784939.375 -4740756.5 255 255 255
748868.9375 1438508.0 -7254343.0 255 255 255
0.11529292166233063 -0.6769023537635803 -0.7269874215126038 255 255 255
0.5062447786331177 0.1403784304857254 -0.8508878350257874 255 255 255
0.09587601572275162 -0.6040592193603516 -0.791151225566864 255 255 255
-0.021396318450570107 0.15981224179267883 -0.9869155287742615 255 255 255
-0.7016359567642212 0.5825367569923401 -0.4103144109249115 255 255 255
-0.05960845574736595 0.12327101826667786 -0.990581214427948 255 255 255
-0.6631190776824951 0.2777694761753082 -0.6950663328170776 255 255 255
0.08018932491540909 -0.5629678964614868 -0.8225793838500977 255 255 255
-0.8980013132095337 0.421954870223999 -0.12469052523374557 255 255 255
-0.7061855792999268 0.6586944460868835 -0.2596604824066162 255 255 255
0.08018932491540909 -0.5629678964614868 -0.8225793838500977 255 255 255
-2649189.25 2949691.0 -2627075.5 255 255 255
