ply
format ascii 1.0
element vertex 44
property float x
property float y
property float z
property uchar red
property uchar green
property uchar blue
end_header
0.7291249601599813 -1.3795859805581572 5.19489468312769 255 255 255
3.391254576071661 0.6897741976552783 -7.205003399586335 255 255 255
0.7291249601599813 -1.3795859805581572 5.19489468312769 255 255 255
1.484644312777016 -0.6363571380266249 1.7007261289455353 255 255 255
1.059830476499791 -0.08371777062703113 1.6853109671468463 255 255 255
1.1269111640788945 -1.0670645765972095 4.480458808164083 255 255 255
3.391254576071661 0.6897741976552783 -7.205003399586335 255 255 255
3.1836890790255397 0.6334079227904456 -6.731209369779648 255 255 255
1.059830476499791 -0.08371777062703113 1.6853109671468463 255 255 255
-0.0977513726818742 -1.4104958285312401 6.301636418361796 255 255 255
4.7095820692480705 0.608267707382561 -8.702177111338008 255 255 255
0.5262246130062556 -1.35240755634324 7.271697032102583 255 255 255
0.7040355883911378 -1.3665224491864842 6.182439694629082 255 255 255
0.8681009816330217 -1.7095767410861769 5.535490116267971 255 255 255
1.0728411886178375 -0.028902786212458547 3.384531375963374 255 255 255
1.0061862988054757 -0.4189497067065238 4.835905834611797 255 255 255
1.1713169918589217 0.45238094328882617 1.8602906357979239 255 255 255
-3.045597544921241 -4.578765283677846 15.835068756041315 255 255 255
-1.052649954578746 -2.4321061797051966 14.53369056151598 255 255 255
1.5614086818549968 -0.2209876546423651 1.1615157629350366 255 255 255
1.7491024509873243 -0.3147492345407579 1.6461895202417463 255 255 255
-2.6888817309258988 0.12838937163011133 30.936304996814727 255 255 255
-14.63860405752923 -14.771486246357519 68.23538370523634 255 255 255
1.131606345198464 -0.9109063089708561 3.201439471852487 255 255 255
1.2804017536867702 -2.0437635062909543 3.016245137981726 255 255 255
1.1535051027227305 -0.5697846823005038 0.8464277178741269 255 255 255
1.8819315932776468 -1.1316462525641837 1.568344728034717 255 255 255
0.9998750706947623 -1.3590494460742963 4.689183992973013 255 255 255
0.9780190779801814 -0.6643452536123625 3.0633037975693025 255 255 255
1.1283620365919629 -1.4628404523384984 4.550318394063689 255 255 255
0.8000223512274091 -1.8708343697164997 5.654913301537552 255 255 255
0.8000223512274091 -1.8708343697164997 5.654913301537552 255 255 255
0.6595951416552648 -0.493735709876212 4.202380856544271 255 255 255
1.241341234157296 -1.47946706764557 4.322175280706638 255 255 255
0.6595951416552648 -0.493735709876212 4.202380856544271 255 255 255
1.0266590659693802 -0.8600952385011635 3.4675933300936417 255 255 255
-0.7165291160184869 0.9441860533056888 -5.731103245812817 255 255 255
1.0806643552671065 -0.5212207322388528 3.6554618670818413 255 255 255
1.1133390503607221 -1.1302449699113997 3.7593889975322017 255 255 255
1.006045563093675 -0.4957068016654552 3.0750407763404857 255 255 255
-0.8531950555351103 0.17005752406438612 -1.463772447800336 255 255 255
0.9998127909985365 -1.1871249133947046 5.746758250020414 255 255 255
-0.537157132569193 0.04161318405420576 -0.6064687470359016 255 255 255
-0.6633036513886573 0.07141207246741813 -1.1868410246497592 255 255 255
