ply
format ascii 1.0
element vertex 707
property float x
property float y
property float z
property uchar red
property uchar green
property uchar blue
end_header
0.4855939447879791 -1.3241510391235352 8.783712387084961 53 37 16
0.6015939712524414 -0.7563408613204956 8.432531356811523 71 46 17
0.1259595900774002 0.5649377107620239 6.778470516204834 3 4 1
0.6285024285316467 0.30182504653930664 6.819849491119385 42 25 4
-0.8130013942718506 -1.2410554885864258 7.577267646789551 56 43 33
-0.42682310938835144 0.9332796931266785 7.729067325592041 140 104 64
-0.8734649419784546 -0.4331856966018677 8.001773834228516 145 119 87
0.5041734576225281 0.6491028070449829 7.129787921905518 150 128 83
-0.5665693879127502 1.0673842430114746 7.037923812866211 32 18 4
0.8359215259552002 0.5209393501281738 6.534043312072754 16 2 0
1.1522631645202637 0.5464801788330078 6.78208065032959 165 141 99
0.45265188813209534 0.2684464454650879 7.508493900299072 176 146 95
-0.7797139286994934 -0.4871176481246948 7.1985697746276855 243 219 168
0.46017688512802124 0.3505595326423645 6.929989337921143 169 152 112
-0.7502909898757935 -1.2409100532531738 8.045055389404297 69 48 21
0.4987231492996216 -0.6156288981437683 8.348150253295898 52 38 16
0.8181926012039185 0.10883299261331558 6.726876258850098 18 7 0
0.9344378113746643 0.32994741201400757 6.596539497375488 19 9 0
-0.3636472821235657 0.6528313755989075 7.182713031768799 190 160 118
0.5920889377593994 0.28706762194633484 6.804862976074219 172 152 119
0.6118260025978088 1.5944702625274658 6.744361400604248 86 60 36
-0.7122750282287598 0.2946416735649109 7.48158597946167 138 111 76
0.45355579257011414 0.1568668633699417 6.894240856170654 219 198 157
0.48228585720062256 0.15754322707653046 8.048693656921387 179 145 92
-0.058841556310653687 0.2665170729160309 7.571264743804932 91 61 39
0.25323203206062317 0.36608684062957764 6.888871669769287 145 125 81
-0.3636472821235657 0.6528313755989075 7.182713031768799 190 160 118
-0.6136872172355652 -0.3081466257572174 7.509993553161621 144 125 91
0.5712267160415649 -0.06622932851314545 6.97974157333374 64 43 8
-0.8187549114227295 -1.381558895111084 7.957313537597656 144 124 95
-0.7511892914772034 0.39108729362487793 7.020023345947266 130 110 78
0.37243548035621643 0.14254465699195862 7.564660549163818 108 74 29
0.4744693636894226 -0.32105058431625366 7.796081066131592 55 32 6
0.3055180311203003 0.8880043029785156 7.072230339050293 163 128 78
1.0023760795593262 0.7883847951889038 6.43218994140625 144 124 77
-0.5414882302284241 -0.007425912190228701 7.113890647888184 159 131 87
0.942093551158905 0.35418689250946045 6.696479320526123 82 57 20
-0.8273153901100159 -0.09225765615701675 7.049777507781982 203 180 130
0.3106590211391449 -0.2352674901485443 7.119177341461182 96 87 66
-0.8710028529167175 -0.4426480233669281 8.034981727600098 147 122 88
0.3819413185119629 0.08716212213039398 6.963344097137451 26 15 0
0.494711309671402 0.3691677749156952 6.964535713195801 107 88 53
-0.30725860595703125 0.4087912440299988 7.692142009735107 152 134 108
0.8402968049049377 0.07575000822544098 7.026499271392822 143 120 81
-0.141987606883049 0.4384094476699829 6.997838497161865 126 106 70
0.35082516074180603 0.7475594282150269 6.715100288391113 37 28 13
0.21770475804805756 3.683565616607666 5.264191627502441 7 3 2
0.7144927382469177 3.1431446075439453 5.436618328094482 5 2 0
1.1976616382598877 0.0037136899773031473 6.924371719360352 156 129 80
-0.21450906991958618 0.26084068417549133 8.013468742370605 65 40 13
0.8049243092536926 0.5639849901199341 6.59441614151001 18 12 0
0.7195135354995728 0.313525915145874 7.518273830413818 162 131 84
0.46407777070999146 -0.17690330743789673 7.506787300109863 103 84 54
0.1577407866716385 0.9179567098617554 6.612771987915039 7 3 0
-0.16093695163726807 -5.382087230682373 10.51075267791748 170 137 86
-0.8464595079421997 -0.8000298738479614 7.406891822814941 249 222 168
-0.4082092046737671 -0.8035714030265808 8.900471687316895 7 3 1
0.6556382179260254 0.5929024815559387 6.802711486816406 41 23 5
-0.6034268140792847 0.6202752590179443 7.7157440185546875 165 135 94
-0.7705930471420288 -0.6180080771446228 7.289162635803223 204 174 126
0.21457965672016144 0.2139756828546524 6.975057601928711 159 138 100
-0.29723694920539856 -0.3405272364616394 7.476600170135498 114 91 51
0.4446009695529938 0.19242028892040253 7.923163890838623 85 57 22
1.0499619245529175 -0.02218513935804367 6.851482391357422 91 68 29
0.41594013571739197 0.7881332039833069 6.8028564453125 129 113 87
-0.7749744653701782 0.24379862844944 6.867504596710205 123 99 53
-0.4102601110935211 -0.23981988430023193 7.719883441925049 209 172 130
-0.3211524188518524 -0.4657495319843292 8.523295402526855 147 113 69
-0.19979022443294525 -0.31678393483161926 7.749822616577148 98 62 17
0.22863726317882538 -0.3409877121448517 7.300621032714844 151 132 91
0.25583890080451965 -0.019927382469177246 8.105213165283203 174 137 84
-0.26653847098350525 0.08989240974187851 8.071401596069336 49 23 1
0.7732529640197754 0.7228289842605591 6.856313228607178 155 127 77
0.9550957083702087 0.8403249382972717 6.468438148498535 54 35 6
0.5033586621284485 0.03476763889193535 7.656966209411621 169 143 107
-0.3955398201942444 0.47425153851509094 7.524101734161377 119 90 56
0.1517009139060974 -0.03756308555603027 7.55242395401001 162 132 81
-0.6705783605575562 0.06338616460561752 8.236233711242676 124 95 65
-0.5992890000343323 -1.7708207368850708 9.517437934875488 176 145 111
-0.852504551410675 -0.6501290202140808 7.428753852844238 111 93 56
0.21457965672016144 0.2139756828546524 6.975057601928711 159 138 100
-0.2913690209388733 -0.10669323801994324 7.1988677978515625 165 138 88
-0.7502909898757935 -1.2409100532531738 8.045055389404297 69 48 21
-0.48577064275741577 0.16060179471969604 6.969368934631348 49 33 26
-0.17191936075687408 0.4373385012149811 7.7954277992248535 181 147 99
0.44513195753097534 0.9682397246360779 6.593742370605469 35 21 0
-0.2793753445148468 -0.3854297995567322 7.8001508712768555 146 113 65
-0.44272544980049133 1.0972824096679688 7.613110065460205 137 106 69
0.4916668236255646 -0.08758662641048431 7.700624942779541 49 29 6
0.13583680987358093 -0.17850710451602936 7.692840576171875 171 138 90
1.0600513219833374 -0.9894817471504211 7.596311569213867 134 108 66
-0.2782183289527893 0.5690141320228577 7.868584156036377 193 160 121
-0.2567712664604187 0.9416903257369995 6.785472869873047 98 78 45
0.1655944436788559 0.1442566215991974 7.575236797332764 85 59 27
-0.5642120242118835 -0.12648040056228638 7.480337619781494 157 134 96
-0.050691887736320496 -0.11587203294038773 7.156924724578857 156 132 95
-0.5836189985275269 -0.0318380631506443 7.583780765533447 60 38 18
-0.14322075247764587 -0.04526207596063614 7.323592185974121 125 106 83
0.3819413185119629 0.08716212213039398 6.963344097137451 26 15 0
-0.48577064275741577 0.16060179471969604 6.969368934631348 49 33 26
-0.5843797922134399 0.062790147960186 7.026443958282471 193 165 119
0.8405851721763611 1.043336272239685 6.415577411651611 139 125 83
-0.8187549114227295 -1.381558895111084 7.957313537597656 144 124 95
-0.3170054256916046 0.37096861004829407 7.618535041809082 152 135 114
0.7822628021240234 0.3061576187610626 6.897008419036865 69 49 18
-0.7804044485092163 -0.08992938697338104 7.119128227233887 102 74 33
0.5386720895767212 0.08530471473932266 8.117259979248047 158 128 90
0.4004262685775757 -0.8685899376869202 8.095536231994629 90 63 31
0.8549401164054871 -0.843754231929779 7.546630382537842 102 75 43
-0.42789122462272644 0.13133803009986877 8.02319622039795 96 66 40
-0.1419057697057724 -0.609038233757019 7.402641296386719 163 144 107
-0.22266161441802979 -0.023128438740968704 8.189606666564941 180 149 105
0.06471358984708786 1.3977081775665283 6.83670711517334 171 138 88
-0.2572539150714874 1.0799596309661865 7.243410587310791 200 167 128
-0.35581424832344055 0.16299252212047577 7.51909065246582 72 46 14
0.6417697072029114 0.20370273292064667 6.949347019195557 48 27 5
0.5352687239646912 0.20513953268527985 7.445084095001221 126 95 49
-0.6818202137947083 0.4096287488937378 6.843556880950928 130 107 62
0.33916693925857544 -0.19302672147750854 7.2920331954956055 156 137 105
-0.4764636754989624 0.09248186647891998 7.130465030670166 196 172 132
-0.12428568303585052 0.23406171798706055 7.523524761199951 159 126 80
-0.4053630828857422 2.0016415119171143 7.205699920654297 65 55 49
0.7548109292984009 0.6609927415847778 7.5515828132629395 178 148 106
-0.5589587092399597 -0.8897103667259216 8.158864974975586 195 167 129
-0.48937293887138367 -0.053988829255104065 7.09926700592041 188 170 131
0.7195135354995728 0.313525915145874 7.518273830413818 162 131 84
0.6038733720779419 0.6980868577957153 7.077188014984131 129 104 64
-0.5962018966674805 0.020152729004621506 8.436392784118652 27 20 15
0.9366685748100281 0.24648770689964294 6.583285808563232 106 98 75
-0.4865659773349762 -1.0753357410430908 8.198317527770996 92 60 21
-0.051934611052274704 -0.3385560214519501 7.329267501831055 26 13 0
-0.3346021771430969 -0.25424712896347046 7.8190436363220215 185 150 102
0.733003556728363 0.2130667269229889 6.8143720626831055 111 93 56
-0.7638815641403198 -0.804071307182312 8.008069038391113 170 148 115
0.4058731496334076 0.11231701821088791 7.523614883422852 164 133 91
0.22155366837978363 0.7752684354782104 7.518397331237793 169 134 86
0.44513195753097534 0.9682397246360779 6.593742370605469 35 21 0
-0.09711883217096329 0.2669357359409332 7.462531566619873 77 46 13
-0.8671425580978394 -0.5863569974899292 7.273110389709473 199 170 125
1.0648714303970337 0.5190753936767578 6.426459312438965 145 135 118
-0.5434026718139648 1.0169709920883179 7.220792293548584 146 119 84
-0.6593368649482727 -0.24056516587734222 7.414524078369141 47 31 10
0.40572983026504517 0.43140238523483276 7.286779880523682 66 42 9
0.7883839011192322 0.07252738624811172 7.07650899887085 162 138 98
0.7402409911155701 0.7524484992027283 7.284906387329102 105 77 41
-0.08771468698978424 -0.7961999773979187 7.60828971862793 138 125 95
-0.5524178147315979 -0.6687510013580322 7.767937183380127 115 89 54
1.046420693397522 -0.4467218518257141 7.037395000457764 61 44 12
0.8283297419548035 1.1595268249511719 6.460267066955566 39 28 3
0.8842751383781433 -0.07128408551216125 7.5022969245910645 116 87 52
-0.5428292155265808 -0.18310581147670746 7.628260612487793 121 93 57
0.507615864276886 0.5373616814613342 6.90611457824707 187 165 120
0.9374567270278931 0.5677846670150757 6.845529079437256 123 94 55
0.46136125922203064 0.26838892698287964 6.969830513000488 167 151 109
0.5259969830513 0.21501560509204865 7.534502983093262 70 49 15
-0.21450906991958618 0.26084068417549133 8.013468742370605 65 40 13
0.7396860122680664 0.10526038706302643 7.065497398376465 182 159 114
0.8008555769920349 0.07409800589084625 7.022464752197266 142 120 83
-0.22332128882408142 -0.9755777716636658 8.245718955993652 188 157 110
1.0770059823989868 -0.5319628119468689 7.359488010406494 122 96 54
0.6445299386978149 -1.1274069547653198 7.6866583824157715 141 118 74
-0.27937763929367065 0.7311862111091614 7.601926326751709 184 151 105
0.7822628021240234 0.3061576187610626 6.897008419036865 69 49 18
0.9558267593383789 0.3505687713623047 7.424203872680664 173 143 96
0.8580307960510254 0.12336786836385727 6.823760032653809 56 45 18
0.25568461418151855 0.7271052598953247 6.787878036499023 152 129 89
-0.8706823587417603 -0.23274698853492737 7.071741104125977 253 236 190
0.9185883402824402 -0.15101784467697144 6.807462692260742 106 90 67
-0.6328067183494568 -0.5849699378013611 7.651524066925049 74 54 28
0.6418949365615845 -0.24959617853164673 7.091640949249268 80 65 43
0.12544645369052887 0.7899149656295776 7.5919189453125 89 63 39
0.8305147290229797 0.40207797288894653 6.698827266693115 55 44 21
0.9196705222129822 -0.0395946241915226 6.874597549438477 130 108 73
-0.22653412818908691 0.432059645652771 7.8351569175720215 135 107 79
0.4596995413303375 0.8819782137870789 7.1349945068359375 90 62 25
0.5047599673271179 -0.3149266541004181 7.586095809936523 177 148 101
-0.2885711193084717 -0.06376517564058304 7.230278491973877 121 102 77
-0.37441638112068176 -0.3554217517375946 8.357766151428223 174 138 99
0.4464949667453766 0.31330323219299316 6.838062286376953 106 86 45
-0.28012940287590027 -0.10385168343782425 7.339865684509277 154 138 100
-0.5956884026527405 1.0108987092971802 6.756474494934082 115 96 62
-0.5749406814575195 0.08146878331899643 7.244903564453125 56 36 5
0.4306795597076416 -0.05586576089262962 8.054937362670898 153 117 75
0.795311450958252 0.2877768278121948 7.579977512359619 31 16 0
0.6183804869651794 0.9188286066055298 6.935846328735352 185 158 117
0.032404933124780655 0.3468388319015503 7.000359535217285 103 88 54
0.5135905742645264 0.9130054116249084 7.522277355194092 102 75 44
0.2593441605567932 0.03130677714943886 7.076629638671875 42 24 2
-0.39104726910591125 0.52885901927948 7.5487871170043945 142 112 74
0.1012953594326973 0.8008332252502441 7.559974670410156 180 142 94
-0.5721246600151062 0.05156368762254715 8.117748260498047 159 128 90
-0.25344347953796387 0.20873883366584778 8.0474271774292 175 147 116
0.6430065631866455 -0.11607896536588669 7.009807586669922 38 23 4
0.6969670057296753 0.3112241327762604 6.8177642822265625 121 101 77
-0.495087206363678 -0.9354830384254456 8.972452163696289 117 90 54
0.8518322706222534 0.7112588882446289 7.377951145172119 147 126 102
-0.6279520988464355 -0.9276341795921326 8.49246883392334 110 80 45
-0.32812511920928955 0.4428214728832245 7.14333963394165 159 146 119
-0.8280455470085144 -0.6388559937477112 7.759949684143066 82 59 30
1.083547830581665 0.11559014767408371 7.084145545959473 56 32 7
0.8445916771888733 0.5725177526473999 6.674939155578613 123 107 80
1.1248759031295776 0.24551060795783997 6.6549072265625 154 133 97
-0.25344347953796387 0.20873883366584778 8.0474271774292 175 147 116
-0.14443503320217133 -0.21058253943920135 8.311399459838867 125 90 52
0.13081757724285126 0.409294456243515 7.367058753967285 158 124 79
0.7655742764472961 -0.15758876502513885 7.118659973144531 150 126 92
0.22098475694656372 0.031284742057323456 8.025503158569336 152 121 72
-0.5271704792976379 0.7583379149436951 6.832208633422852 80 60 32
0.9085352420806885 0.43463802337646484 6.821603775024414 115 89 47
-0.6351862549781799 0.38498470187187195 7.100094795227051 91 72 41
0.4479767680168152 -0.9015809893608093 8.035562515258789 87 63 28
0.7655742764472961 -0.15758876502513885 7.118659973144531 150 126 92
-0.31945645809173584 0.21152769029140472 7.561370849609375 158 120 71
-0.3267609477043152 -0.5133744478225708 8.003891944885254 194 161 113
0.7875543832778931 0.2723475694656372 7.2232184410095215 169 142 96
-0.3211524188518524 -0.4657495319843292 8.523295402526855 147 113 69
0.9268447756767273 0.9820556640625 6.694921970367432 185 158 109
-0.13051319122314453 -0.7144306302070618 8.735365867614746 155 127 94
0.3860064148902893 0.6833789348602295 6.66978645324707 117 101 73
-0.6118358969688416 -0.1862555593252182 7.395569801330566 139 113 78
-0.14050906896591187 -0.1358596235513687 7.627252101898193 144 108 66
0.8276035189628601 0.23700593411922455 7.076574802398682 77 52 15
-0.3643844723701477 0.3306131362915039 8.093868255615234 173 139 96
0.44244351983070374 0.479371041059494 6.815521717071533 117 100 65
0.9524593353271484 0.4407183527946472 6.494866371154785 156 155 117
0.8041635751724243 1.1286437511444092 6.686866283416748 152 126 84
-1.9471557140350342 -8.960454940795898 12.358521461486816 145 114 67
-0.3353067934513092 0.6196181178092957 7.959394454956055 161 131 96
0.6183804869651794 0.9188286066055298 6.935846328735352 185 158 117
0.4616503119468689 0.2299957126379013 7.052419185638428 159 140 103
-0.1737561672925949 1.473369836807251 6.887844562530518 207 179 139
0.7604257464408875 -0.0427522175014019 7.101923942565918 66 45 20
0.90379399061203 -0.19408617913722992 7.643406391143799 99 74 38
-1.0967830419540405 -1.5160763263702393 8.893608093261719 135 109 80
0.2515469491481781 0.844727098941803 7.14749002456665 170 134 87
1.0499619245529175 -0.02218513935804367 6.851482391357422 91 68 29
0.7436158061027527 0.46494925022125244 7.489869117736816 92 67 38
-0.20805300772190094 0.8325836062431335 6.907210350036621 131 114 84
0.26492196321487427 0.36777016520500183 6.894384860992432 151 132 94
-0.8280455470085144 -0.6388559937477112 7.759949684143066 82 59 30
-0.6347001791000366 -0.6690540909767151 8.273696899414062 113 89 58
0.7460238933563232 0.7540353536605835 7.47871732711792 134 105 67
-0.7909623980522156 -0.6290146112442017 7.866073131561279 90 67 38
0.451939195394516 -0.593226432800293 8.401551246643066 80 56 28
-0.6115380525588989 -0.12273851037025452 7.389688968658447 100 75 46
0.4776138365268707 0.012006677687168121 7.438170909881592 33 16 0
0.41648149490356445 0.5355542302131653 6.815959453582764 110 96 70
0.08255531638860703 -0.012523776851594448 8.069308280944824 115 82 35
-0.3173122704029083 0.6635851860046387 7.648942947387695 186 151 105
0.7732529640197754 0.7228289842605591 6.856313228607178 155 127 77
-0.28078341484069824 -0.6034031510353088 7.62971305847168 152 132 101
0.9665070176124573 -0.4661281406879425 7.1667962074279785 119 100 59
0.40464818477630615 0.11128100007772446 7.140018939971924 73 53 20
-0.5370520353317261 -0.6735424995422363 8.817354202270508 97 70 44
0.6955814361572266 -0.10848378390073776 7.49159049987793 82 56 21
0.8366864323616028 0.2655540704727173 6.673520565032959 200 181 137
-0.5273401737213135 0.058573052287101746 7.673961639404297 101 72 41
-0.7919775247573853 -0.9488538503646851 7.6098504066467285 207 185 143
0.37168601155281067 -0.04321661964058876 7.535966873168945 152 124 84
-0.023288320749998093 0.029603682458400726 8.11662483215332 151 121 86
0.5365009903907776 1.3829294443130493 7.17914342880249 84 58 31
0.4572511911392212 -0.2346794605255127 8.143198013305664 125 101 64
0.709456205368042 0.11276782304048538 6.969227313995361 127 107 69
-0.9693064093589783 -1.0442005395889282 8.616606712341309 95 68 34
0.6833903789520264 -0.003338962560519576 7.110022068023682 142 123 89
0.1473904550075531 -0.10034067183732986 7.691289901733398 145 116 73
-0.7658877372741699 -0.19712816178798676 7.749536991119385 97 73 40
0.9207159280776978 0.7316614985466003 7.172773838043213 117 92 50
-0.6167582273483276 0.10551543533802032 7.557675838470459 116 86 46
0.8584864139556885 -0.37767988443374634 7.4399333000183105 107 81 39
-0.826522946357727 -0.5201948285102844 7.448947906494141 86 63 30
-0.2620687484741211 0.07262998819351196 7.65122127532959 128 98 58
0.6259850263595581 -0.3071558475494385 8.188151359558105 149 123 98
0.5947076082229614 0.3375784754753113 7.630707740783691 48 27 5
0.5719634890556335 -1.5140334367752075 7.829031944274902 126 99 55
-0.07474000006914139 0.06052189692854881 7.640737533569336 107 79 38
-0.47914034128189087 0.3140186369419098 7.683567523956299 94 75 51
-0.24958401918411255 0.9529255628585815 7.485291957855225 107 78 42
0.35301893949508667 0.2790605127811432 7.445708751678467 173 140 94
-0.07474000006914139 0.06052189692854881 7.640737533569336 107 79 38
-0.06480161845684052 0.35671985149383545 7.920947551727295 178 143 100
0.333001971244812 -0.1422656923532486 7.184681415557861 126 108 75
-0.539115846157074 0.34366387128829956 7.391628742218018 105 83 52
0.7772761583328247 0.13203811645507812 7.0017170906066895 134 116 81
-0.41292721033096313 0.6173986196517944 6.902003288269043 144 120 85
-0.8273153901100159 -0.09225765615701675 7.049777507781982 203 180 130
0.5966736674308777 0.235188290476799 7.735162258148193 31 16 0
0.24755029380321503 -0.48055151104927063 7.3625874519348145 131 111 77
0.8534306287765503 0.500023603439331 6.639584064483643 139 123 88
0.3461475670337677 0.1601031869649887 7.470898628234863 148 117 80
0.7914703488349915 -0.3131655752658844 7.948691368103027 101 80 59
-0.7542890906333923 -0.7880203723907471 7.9517502784729 156 135 107
0.36246421933174133 0.5417110323905945 7.757080078125 123 93 54
0.14083577692508698 0.12558254599571228 7.498981475830078 86 60 26
0.7803983092308044 -0.1412951648235321 7.81259298324585 158 128 94
1.0178852081298828 0.894539475440979 6.56955099105835 182 157 112
0.6527868509292603 0.21650849282741547 7.045202255249023 99 73 36
-0.70968097448349 2.18576717376709 6.036709785461426 48 47 43
-0.458550363779068 0.2938413619995117 7.265122413635254 109 80 46
-0.22266161441802979 -0.023128438740968704 8.189606666564941 180 149 105
0.06355257332324982 -0.7131868004798889 7.5279130935668945 165 142 104
-0.3157956004142761 0.04994319751858711 7.640422821044922 91 62 15
0.8943908214569092 0.8568092584609985 7.201470851898193 121 90 47
0.49533408880233765 0.548771321773529 7.261027812957764 100 76 39
0.14083577692508698 0.12558254599571228 7.498981475830078 86 60 26
-0.48937293887138367 -0.053988829255104065 7.09926700592041 188 170 131
-0.2564028799533844 0.17093634605407715 7.091407775878906 145 125 90
-0.0639195442199707 -0.03277267888188362 8.14552116394043 144 115 84
-0.11946297436952591 -0.2470073252916336 8.209884643554688 179 144 103
-0.3267609477043152 -0.5133744478225708 8.003891944885254 194 161 113
-0.18910324573516846 1.2254638671875 7.532718658447266 139 111 79
-0.09530089795589447 1.3147016763687134 6.568142890930176 131 109 77
-0.41292721033096313 0.6173986196517944 6.902003288269043 144 120 85
0.8241493701934814 -0.22294123470783234 7.143322944641113 66 45 14
0.9610210061073303 -0.4145597815513611 7.984025001525879 166 135 96
-0.21185405552387238 0.5634607672691345 7.294586658477783 164 130 87
0.47339242696762085 -0.11233624070882797 7.24937105178833 100 73 32
-0.326324462890625 0.498457133769989 8.037820816040039 134 109 81
0.8232802152633667 1.1066290140151978 6.816661834716797 162 137 100
0.8179190754890442 0.2336512804031372 6.992697238922119 155 134 97
0.751341700553894 0.7714859843254089 6.6331787109375 96 78 43
0.2849794328212738 -0.05808015167713165 7.173463821411133 62 39 10
-0.2645018398761749 -0.2852638363838196 7.85208797454834 128 96 57
0.0008296660962514579 0.504858672618866 7.839985370635986 150 114 71
1.1000005006790161 -0.2648521661758423 7.059542179107666 107 86 46
0.9189233779907227 0.3757096827030182 7.5009613037109375 117 84 43
-0.48844054341316223 -0.5454386472702026 7.567564010620117 142 123 89
0.9933182597160339 0.8678426146507263 6.987541198730469 126 99 58
-0.5271704792976379 0.7583379149436951 6.832208633422852 80 60 32
0.6955814361572266 -0.10848378390073776 7.49159049987793 82 56 21
0.6609513759613037 1.3497892618179321 6.515233039855957 92 66 29
-0.5822848081588745 2.646282434463501 5.798342704772949 56 52 44
0.8032382130622864 -0.06330404430627823 7.00669527053833 90 72 34
-0.31657543778419495 -0.16527877748012543 7.668944835662842 180 141 86
0.12435790151357651 0.5224897861480713 7.3534746170043945 191 163 111
-0.29655513167381287 1.4024326801300049 6.954634666442871 133 108 80
0.4488663077354431 1.2716014385223389 7.214771270751953 146 113 64
-0.03807015344500542 0.7642963528633118 7.226637363433838 121 91 51
0.5930717587471008 1.075857400894165 6.855004787445068 166 141 99
0.7926986813545227 0.771041750907898 6.5757222175598145 124 103 73
-0.22586789727210999 -0.2084026038646698 7.820522308349609 170 140 102
-0.15477965772151947 0.2622561752796173 7.503375053405762 156 121 69
0.3705308139324188 -0.32424092292785645 8.251067161560059 118 87 49
0.29247891902923584 0.984196662902832 6.627098560333252 107 89 63
-0.3061726689338684 0.020790793001651764 7.692362308502197 130 97 49
0.8341686129570007 0.2252243608236313 7.2572407722473145 177 152 110
-0.22332128882408142 -0.9755777716636658 8.245718955993652 188 157 110
0.4198490381240845 -0.41206514835357666 8.191192626953125 9 5 0
0.8180876970291138 1.5008753538131714 6.930838584899902 7 1 1
-0.19522416591644287 -0.26008719205856323 7.786325931549072 73 45 9
0.374621719121933 -0.7124426960945129 7.933445453643799 177 147 105
0.5494507551193237 0.36095601320266724 7.449457168579102 165 141 108
0.8241493701934814 -0.22294123470783234 7.143322944641113 66 45 14
-0.16384190320968628 1.617287516593933 6.7521586418151855 102 76 44
-0.5231783986091614 -3.0958054065704346 9.253705978393555 21 5 0
1.1404534578323364 0.25455501675605774 7.304685592651367 131 102 56
1.0115076303482056 0.47096338868141174 6.614672660827637 153 136 92
0.7976137399673462 0.8042230010032654 6.586042404174805 125 107 78
-0.061560552567243576 1.3677568435668945 6.536908149719238 129 107 73
0.9030104279518127 0.2545793652534485 7.0029778480529785 96 70 36
-0.14336401224136353 -0.5988535284996033 8.471940994262695 97 69 33
0.35301893949508667 0.2790605127811432 7.445708751678467 173 140 94
0.8904497027397156 0.0784032866358757 6.995755672454834 78 61 29
0.038799792528152466 1.1243482828140259 6.647968769073486 83 65 37
-0.4231516122817993 0.5026227235794067 7.031083583831787 139 118 80
0.6609513759613037 1.3497892618179321 6.515233039855957 92 66 29
-0.826522946357727 -0.5201948285102844 7.448947906494141 86 63 30
0.806763768196106 1.311922311782837 7.033133506774902 132 111 89
-0.29367220401763916 0.41252458095550537 7.310793399810791 19 13 8
1.1404534578323364 0.25455501675605774 7.304685592651367 131 102 56
0.3651662766933441 -0.2071683406829834 7.148672103881836 117 96 61
-0.11457064747810364 0.6727136969566345 7.2951507568359375 124 95 62
-1.2681859731674194 -1.663503646850586 7.8446125984191895 54 41 20
0.8725415468215942 -0.1006716787815094 7.497219085693359 169 142 101
0.13673675060272217 -0.06912698596715927 7.221356391906738 87 63 30
0.40455320477485657 0.2986915111541748 7.342072010040283 152 126 89
-0.721977710723877 -1.6692311763763428 8.87493896484375 195 166 124
0.7875543832778931 0.2723475694656372 7.2232184410095215 169 142 96
-0.5370520353317261 -0.6735424995422363 8.817354202270508 97 70 44
-0.47114136815071106 -0.1017872616648674 7.199465751647949 153 124 77
0.6913849115371704 0.37834814190864563 7.195705413818359 101 71 35
0.20854809880256653 -0.04383308067917824 8.165656089782715 103 77 40
-0.2645018398761749 -0.2852638363838196 7.85208797454834 128 96 57
1.0537350177764893 1.4135866165161133 6.602377414703369 178 150 108
-0.7013346552848816 -0.6275443434715271 7.484938144683838 113 87 43
0.3989200294017792 -0.923594057559967 8.533120155334473 135 105 73
0.9173009991645813 0.4906790852546692 6.885471820831299 100 74 41
0.20854809880256653 -0.04383308067917824 8.165656089782715 103 77 40
-0.6434815526008606 -2.852712631225586 9.258712768554688 78 52 18
0.6868757009506226 0.44443848729133606 6.911050319671631 72 49 20
0.8829763531684875 1.5300867557525635 6.075614929199219 21 12 1
0.7235997915267944 0.48896467685699463 7.044029712677002 87 60 30
-0.6028271317481995 -0.48808062076568604 7.443409442901611 65 41 11
-0.3617610037326813 0.5666913986206055 7.018093585968018 101 82 47
0.39397889375686646 0.7873853445053101 7.149476051330566 108 80 37
0.5977228879928589 0.1495858132839203 7.631747722625732 146 118 80
0.8223779201507568 -0.11341434717178345 7.3432416915893555 70 46 14
-0.40076327323913574 0.14127188920974731 8.010909080505371 99 68 37
-0.3775286376476288 0.5408836603164673 7.074545383453369 107 79 45
0.1261339634656906 -0.5083211660385132 8.359479904174805 161 130 93
-0.26653847098350525 0.08989240974187851 8.071401596069336 49 23 1
-0.7431827783584595 -0.8219588398933411 8.6563081741333 126 94 60
0.39397889375686646 0.7873853445053101 7.149476051330566 108 80 37
0.0046272543258965015 0.36436739563941956 7.506843566894531 173 140 90
-0.2582447826862335 -0.09050331264734268 7.372145652770996 149 135 110
0.22863726317882538 -0.3409877121448517 7.300621032714844 151 132 91
0.8534306287765503 0.500023603439331 6.639584064483643 139 123 88
0.8829763531684875 1.5300867557525635 6.075614929199219 21 12 1
-0.28564029932022095 0.3306051194667816 7.901726245880127 89 55 20
-0.9149731397628784 -1.909401774406433 7.945642948150635 212 195 153
0.4763484299182892 0.7971945405006409 7.4587602615356445 143 114 81
-0.19835080206394196 -0.2595806121826172 7.840592384338379 66 42 18
0.32823482155799866 -1.0401208400726318 7.648338317871094 156 138 96
-0.11273505538702011 -0.1820090264081955 7.348640441894531 159 133 92
-0.9346762299537659 -1.1975032091140747 7.664058685302734 195 173 133
-0.40806156396865845 0.8467603325843811 7.548558712005615 171 140 99
0.9334261417388916 0.9461269378662109 6.631871223449707 196 172 122
-0.14430688321590424 -0.48681607842445374 8.527483940124512 178 143 98
-0.5588745474815369 0.5560846924781799 7.307125091552734 107 81 44
0.22849832475185394 -1.056749701499939 7.5358195304870605 122 109 87
0.3174472153186798 0.137406125664711 7.090947151184082 129 111 81
0.9294514656066895 -0.2596985101699829 7.815047740936279 145 116 72
0.11399950087070465 -0.326349139213562 7.367020130157471 151 132 81
0.8214890360832214 -0.28478407859802246 7.816248893737793 126 98 59
0.795311450958252 0.2877768278121948 7.579977512359619 31 16 0
-0.06057906895875931 0.6300931572914124 6.947140216827393 163 138 96
0.8289859294891357 0.043869465589523315 7.733712196350098 166 145 106
0.3527683615684509 -0.11762748658657074 7.629642963409424 75 47 20
0.036640338599681854 -0.5721780061721802 8.484797477722168 171 138 94
0.4434845745563507 -0.018138179555535316 7.985454559326172 56 35 12
1.040726900100708 0.7302746772766113 6.349799633026123 48 31 7
0.30672773718833923 -4.2618536949157715 9.736836433410645 148 126 95
-0.15508367121219635 -1.895434021949768 8.19489860534668 145 120 76
0.5437865853309631 -0.7361215949058533 7.2790093421936035 109 95 74
0.7982913255691528 0.020927274599671364 7.066651821136475 87 64 30
-0.5334938764572144 0.22455374896526337 7.8769850730896 107 81 49
0.3018673062324524 -1.9814363718032837 9.226449012756348 66 40 17
0.8760277628898621 -0.05465371906757355 6.975699424743652 83 66 33
-0.13430330157279968 -1.6424989700317383 8.026396751403809 137 119 89
0.32936668395996094 0.5066655278205872 6.921067714691162 102 73 32
0.39627501368522644 -0.3211232125759125 7.693047046661377 49 29 0
-0.0174868144094944 0.27619239687919617 7.962062358856201 56 33 5
0.8187296986579895 -0.09254259616136551 6.931130886077881 127 107 71
-0.6742302775382996 -0.8049824833869934 8.32447624206543 27 9 0
1.1226922273635864 0.3275561034679413 6.796769618988037 107 82 39
0.39954277873039246 -0.10830118507146835 7.1528849601745605 147 130 92
0.4916668236255646 -0.08758662641048431 7.700624942779541 49 29 6
-0.6680476069450378 0.6072148680686951 6.740283489227295 107 91 52
0.610103189945221 -1.425960659980774 7.7534098625183105 146 118 77
-0.02753256820142269 -1.2267639636993408 8.971091270446777 157 127 87
-0.5748125314712524 0.5619169473648071 8.007364273071289 37 21 5
0.7289612889289856 0.05170423910021782 7.0336527824401855 138 116 81
-1.4201622009277344 -3.379847764968872 8.725997924804688 195 173 135
1.1220890283584595 0.2837376594543457 6.891872406005859 125 99 53
0.15857534110546112 1.1319352388381958 6.53513765335083 171 157 126
-0.02727530710399151 0.2241198718547821 7.542457103729248 198 169 124
0.7813816666603088 1.2150442600250244 6.751127243041992 120 90 53
1.1737242937088013 0.0808616578578949 7.418201923370361 171 145 111
-0.826522946357727 -0.5201948285102844 7.448947906494141 86 63 30
-0.6434815526008606 -2.852712631225586 9.258712768554688 78 52 18
0.21639969944953918 1.6500109434127808 6.273568630218506 21 2 0
0.5620126128196716 -4.077362537384033 8.787779808044434 15 3 0
0.6248868703842163 -0.31338807940483093 7.150735378265381 43 25 5
0.9497811794281006 -0.6710068583488464 7.08402156829834 39 23 5
-0.1985059231519699 1.1083344221115112 7.04127311706543 155 119 74
0.39248648285865784 -0.9606293439865112 7.465149402618408 54 39 16
0.8963308930397034 -0.5010510683059692 7.677614212036133 91 64 29
0.3559509515762329 -5.12892484664917 11.086292266845703 93 71 45
0.6955814361572266 -0.10848378390073776 7.49159049987793 82 56 21
-0.6377093195915222 0.22070786356925964 8.014541625976562 159 130 96
-0.6970608830451965 -1.030158281326294 7.908146381378174 132 105 73
-0.6776024103164673 -0.6191402077674866 7.930415630340576 139 113 78
0.660962700843811 0.7785394787788391 6.583124160766602 118 103 72
0.3726268708705902 -0.0010977518977597356 7.583574295043945 157 130 86
0.6181027293205261 0.9880855679512024 6.488061428070068 57 37 12
0.3391309976577759 -2.1816906929016113 8.768034934997559 72 46 14
-0.7895788550376892 -0.7626985311508179 8.905441284179688 118 85 45
0.44526293873786926 1.4509698152542114 6.7532196044921875 104 75 44
-0.4179309010505676 -1.3131812810897827 7.936880111694336 101 83 51
0.9961592555046082 0.6345791220664978 6.886764049530029 123 93 53
0.5434735417366028 -0.5624557733535767 7.779891490936279 114 84 44
1.324184775352478 -1.8006361722946167 8.478328704833984 18 9 2
1.204596996307373 -1.6076666116714478 7.75144100189209 115 90 45
-0.018298331648111343 0.22236809134483337 8.048419952392578 72 48 15
1.0327287912368774 8.598088264465332 2.462878465652466 7 3 0
-0.8576915264129639 -1.666350245475769 8.929067611694336 71 51 31
0.5948805809020996 -0.3600614070892334 8.026787757873535 144 118 86
1.3324464559555054 -5.872555732727051 10.946161270141602 11 5 2
0.909385085105896 -0.9953843355178833 8.031784057617188 164 137 94
-0.28920263051986694 2.1969614028930664 5.9725565910339355 210 185 138
-0.3070600926876068 1.4079161882400513 6.668622970581055 157 131 90
1.0011491775512695 -1.24248468875885 8.3945894241333 168 141 109
0.6082636713981628 0.32860496640205383 6.873600482940674 163 137 91
0.7289612889289856 0.05170423910021782 7.0336527824401855 138 116 81
0.8790522813796997 -0.8056551814079285 7.698407173156738 98 71 36
0.9615275263786316 -2.8827602863311768 8.891371726989746 102 76 42
0.909385085105896 -0.9953843355178833 8.031784057617188 164 137 94
0.4707525968551636 0.23665574193000793 7.445211410522461 143 114 80
0.4399411082267761 2.640277147293091 5.819706439971924 26 12 1
-0.5332915186882019 -3.7707326412200928 10.502744674682617 177 145 107
0.6311618089675903 0.719025194644928 7.058643341064453 117 89 48
0.011994834989309311 -0.23950955271720886 7.298210620880127 71 56 24
0.9294514656066895 -0.2596985101699829 7.815047740936279 145 116 72
0.5919175744056702 1.7067879438400269 6.309064865112305 178 156 109
0.5729379653930664 1.7834408283233643 6.1427836418151855 147 127 84
-0.48480403423309326 28.469131469726562 -5.959951877593994 160 140 93
0.17199929058551788 0.6999772191047668 7.710049629211426 176 140 91
-0.36582979559898376 -0.46955567598342896 7.497337818145752 92 75 42
0.7435441017150879 3.260336399078369 5.611254692077637 146 116 77
-1.2524611949920654 -8.974470138549805 12.916524887084961 170 133 84
0.05441278591752052 2.9167699813842773 5.680392742156982 42 25 8
0.850985050201416 2.421523094177246 6.2702836990356445 19 8 6
0.5292038321495056 0.9430572986602783 7.092250823974609 144 118 81
37.06925964355469 233.32020568847656 -107.56669616699219 17 10 5
0.9961592555046082 0.6345791220664978 6.886764049530029 123 93 53
0.6738828420639038 4.44856595993042 4.8918070793151855 63 46 23
0.2955024838447571 4.454471111297607 5.140493392944336 146 113 77
1.183855652809143 -0.23259064555168152 7.4658379554748535 179 151 111
-0.7094404101371765 -0.12006556242704391 8.359214782714844 114 87 59
1.22920560836792 -0.21891508996486664 6.964355945587158 10 3 0
1.2309796810150146 -0.20388376712799072 6.951687812805176 7 2 0
1.198983073234558 -0.26755964756011963 7.639764308929443 17 7 1
0.7530685663223267 -0.3857934772968292 8.175790786743164 141 112 69
0.8972266316413879 -0.33665332198143005 7.913552284240723 175 146 101
-0.709879457950592 0.25633475184440613 7.6764607429504395 146 120 82
-0.6994252800941467 0.2211841195821762 7.00467586517334 90 71 36
-0.7340466380119324 0.37597766518592834 7.1486005783081055 128 108 71
0.4166729152202606 -0.4613145589828491 8.088908195495605 8 4 1
0.7781373262405396 0.4509791433811188 6.828160762786865 73 49 20
0.19731129705905914 -0.20434343814849854 8.269725799560547 94 66 34
-0.5333664417266846 0.3862296938896179 7.090152740478516 54 36 15
1.1974706649780273 -0.224108025431633 7.584069728851318 169 146 111
0.8727132678031921 0.5829858779907227 6.715223789215088 164 147 103
0.7530685663223267 -0.3857934772968292 8.175790786743164 141 112 69
0.16042330861091614 0.44925829768180847 6.948764801025391 158 138 92
-0.2450573891401291 0.3357829749584198 7.085241317749023 96 78 48
1.187430500984192 -0.2264299988746643 7.525038719177246 176 148 107
-0.7355057597160339 0.17871631681919098 7.641950607299805 145 119 88
1.1974706649780273 -0.224108025431633 7.584069728851318 169 146 111
-0.153769850730896 0.3379211723804474 7.0482306480407715 142 118 85
0.06916307657957077 -0.20159436762332916 8.245835304260254 172 139 93
0.7781373262405396 0.4509791433811188 6.828160762786865 73 49 20
0.4166729152202606 -0.4613145589828491 8.088908195495605 8 4 1
-0.360298752784729 -0.4777320325374603 8.67843246459961 7 3 0
0.19731129705905914 -0.20434343814849854 8.269725799560547 94 66 34
-0.2513766288757324 -0.23259836435317993 8.326621055603027 181 150 103
0.8232890963554382 -0.2048277109861374 7.390655994415283 71 47 15
0.42707502841949463 0.5929917097091675 6.811513423919678 149 133 93
0.03912622481584549 0.42464736104011536 6.993330955505371 139 124 92
0.8326703310012817 0.4876176416873932 6.7363080978393555 38 27 2
-0.6844510436058044 0.4599323570728302 7.79044246673584 29 16 7
0.0395456962287426 -0.19302110373973846 8.244425773620605 158 127 85
0.16717620193958282 -0.33270126581192017 7.817079544067383 168 135 89
-0.13221846520900726 -0.21397387981414795 8.291963577270508 178 146 100
0.6648964881896973 -0.38127753138542175 8.290348052978516 6 3 3
0.8232890963554382 -0.2048277109861374 7.390655994415283 71 47 15
0.28404930233955383 -0.41358575224876404 8.35490894317627 156 122 80
-0.079771488904953 -0.22707496583461761 8.317777633666992 148 112 68
0.007812195457518101 0.3698276877403259 6.997349739074707 128 111 75
0.06964292377233505 0.4413222670555115 6.979373455047607 139 118 91
-0.3100809156894684 -0.6766111254692078 8.337052345275879 6 2 0
0.43225333094596863 -0.18439620733261108 8.161800384521484 87 62 29
-0.31284746527671814 -0.4183896481990814 7.9484710693359375 192 161 115
0.7546609044075012 0.42947718501091003 6.838486671447754 154 132 95
0.46847662329673767 -0.34759145975112915 8.376943588256836 182 148 98
0.8056195974349976 0.4585471451282501 6.818772315979004 70 46 16
-0.2878005802631378 -0.25901588797569275 8.354040145874023 65 40 15
-0.3100809156894684 -0.6766111254692078 8.337052345275879 6 2 0
0.5962334275245667 -0.20134678483009338 7.56446647644043 130 103 64
-0.07276885956525803 -0.23106761276721954 8.290863990783691 58 32 7
-0.6856067180633545 0.6947328448295593 7.313461780548096 25 16 14
0.8056195974349976 0.4585471451282501 6.818772315979004 70 46 16
-0.4589662253856659 1.766888976097107 7.376293659210205 68 55 50
0.7546609044075012 0.42947718501091003 6.838486671447754 154 132 95
0.2284342348575592 -0.35176950693130493 7.765658378601074 165 131 79
-0.6864221692085266 0.3910352885723114 7.342764854431152 147 127 86
0.02228575386106968 0.39846524596214294 6.995022296905518 74 58 27
0.8119359016418457 0.49435967206954956 6.758745193481445 144 123 87
0.6107933521270752 -0.22071529924869537 7.5488057136535645 190 165 123
0.7697456479072571 0.45774370431900024 6.845055103302002 135 117 85
1.1791565418243408 -0.058048442006111145 6.888586521148682 164 141 97
1.1638492345809937 -0.04465431347489357 6.844033718109131 157 134 91
1.2068272829055786 0.04505662992596626 6.941229820251465 161 141 111
-0.6536915898323059 0.2743872106075287 7.050442218780518 86 64 33
-0.4470769166946411 -0.08033975958824158 7.8330607414245605 150 118 77
0.8865447044372559 -0.15320487320423126 7.547008991241455 113 87 50
0.5136518478393555 -0.22251977026462555 7.660721778869629 177 146 99
-0.20568682253360748 -0.41660401225090027 7.896280765533447 164 131 83
-0.12388184666633606 -0.37149080634117126 7.889443397521973 105 73 34
0.2284342348575592 -0.35176950693130493 7.765658378601074 165 131 79
0.0001641919370740652 -0.6029874086380005 7.876646518707275 176 142 85
-0.31996724009513855 -0.24617844820022583 8.345477104187012 176 148 117
0.5902684926986694 -0.12628839910030365 7.909375190734863 57 37 9
0.3548227548599243 -0.5104256272315979 7.604241847991943 8 4 1
-0.7132363319396973 0.1975221186876297 6.979244709014893 102 76 33
-0.39523863792419434 -0.4758132994174957 7.942481994628906 88 59 16
0.7900424003601074 0.45658427476882935 6.764062881469727 89 71 33
0.06916307657957077 -0.20159436762332916 8.245835304260254 172 139 93
-0.4964543581008911 0.40157991647720337 7.090505599975586 139 114 78
-0.6758774518966675 0.30343472957611084 7.778792858123779 92 65 34
-0.5144789814949036 0.3787574768066406 7.090740203857422 57 38 9
1.0466973781585693 -0.24683541059494019 7.3305439949035645 126 96 56
0.8057353496551514 0.45024237036705017 6.750760555267334 130 112 82
-0.30802929401397705 -0.4396853446960449 7.904290199279785 87 57 17
0.7311203479766846 -0.22193893790245056 7.412132263183594 84 57 26
-0.08754356950521469 -0.242422953248024 8.2809476852417 150 120 86
-0.21456648409366608 -0.41402676701545715 7.873995780944824 71 45 11
0.15038007497787476 -0.3451688885688782 7.802273750305176 119 89 49
-0.7223233580589294 0.3986384868621826 7.198606014251709 127 107 66
0.6089548468589783 0.507524311542511 6.788820743560791 151 125 84
0.21268834173679352 -0.579537570476532 7.92595100402832 153 122 73
1.1955150365829468 0.013240545988082886 7.037388324737549 167 144 103
1.1925264596939087 0.09018056094646454 6.936396598815918 123 96 54
0.8449493050575256 0.5220817923545837 6.698479652404785 129 115 81
-0.6536915898323059 0.2743872106075287 7.050442218780518 86 64 33
0.8416138887405396 -0.2328738272190094 7.384186744689941 150 122 83
0.21268834173679352 -0.579537570476532 7.92595100402832 153 122 73
0.8614963293075562 -0.11510428786277771 7.4695539474487305 160 135 96
0.03090217150747776 -0.2205033302307129 8.240579605102539 91 66 35
0.7951009273529053 -0.12481562793254852 7.43316125869751 172 144 101
0.9323311448097229 -0.37492260336875916 8.01169490814209 9 3 5
0.23138277232646942 0.4093955457210541 6.912792682647705 117 98 74
0.790739119052887 0.4713776707649231 6.832037925720215 142 121 83
-0.08607354760169983 -0.5584138035774231 8.06325626373291 175 140 88
0.9855437874794006 -0.33239734172821045 7.849057674407959 19 7 0
0.8548930883407593 0.528931200504303 6.705593585968018 101 83 43
-0.31996724009513855 -0.24617844820022583 8.345477104187012 176 148 117
1.1955150365829468 0.013240545988082886 7.037388324737549 167 144 103
1.136240005493164 -0.1788083016872406 7.536474704742432 162 132 81
0.2134040892124176 -0.21029633283615112 8.219762802124023 61 38 10
0.7951009273529053 -0.12481562793254852 7.43316125869751 172 144 101
0.8720946907997131 -0.11541486531496048 7.505370140075684 166 139 98
-0.4860996603965759 -0.6478291749954224 7.977912425994873 81 51 14
-0.15819860994815826 -0.21757195889949799 8.298727035522461 170 140 95
-0.7863986492156982 0.22169074416160583 7.1042680740356445 130 110 76
-0.4752468168735504 0.09641313552856445 8.09502124786377 119 87 53
0.2201380431652069 -0.3543427884578705 8.235100746154785 124 106 70
0.1792653352022171 0.4545893967151642 6.959221363067627 88 64 29
0.19731129705905914 -0.20434343814849854 8.269725799560547 94 66 34
0.10765891522169113 -0.22306057810783386 8.230419158935547 115 87 49
-0.3338170647621155 -0.42857545614242554 7.905068874359131 164 133 91
0.9855437874794006 -0.33239734172821045 7.849057674407959 19 7 0
0.4673214256763458 -0.19452282786369324 7.643912315368652 91 67 32
0.7561215162277222 0.42547184228897095 6.796310901641846 92 75 41
0.8145548105239868 -0.16705891489982605 7.487826347351074 121 93 54
0.7055819630622864 0.508569598197937 6.781421661376953 127 107 70
-0.5599151253700256 -0.12295543402433395 7.778966426849365 100 71 42
-0.5404685735702515 -0.32667168974876404 8.394344329833984 118 87 52
0.5283724069595337 -0.14730682969093323 7.64165735244751 129 100 54
-0.19490768015384674 -0.5145388841629028 8.512040138244629 143 110 71
0.694308876991272 -0.2118472009897232 7.510194778442383 104 73 38
-0.5498452186584473 2.7156944274902344 5.763192176818848 61 58 49
0.4075714945793152 -0.2814633250236511 7.710031509399414 76 48 14
-0.33482328057289124 -0.43127259612083435 7.9428935050964355 131 102 60
0.7869468331336975 0.48323673009872437 6.843598365783691 96 75 36
-0.5562756657600403 0.18243421614170074 7.680585861206055 140 114 79
-0.20526966452598572 0.33557695150375366 7.059567928314209 124 102 70
-0.37245213985443115 -0.43155673146247864 7.954681873321533 132 96 49
0.641606867313385 0.43851447105407715 6.8372063636779785 50 28 6
-0.048376601189374924 -0.20626744627952576 8.269320487976074 157 124 87
-0.0034084508661180735 -0.27286794781684875 8.244272232055664 179 146 97
-0.5011492371559143 0.5259653925895691 7.265247821807861 168 147 112
-0.046539925038814545 -0.41567498445510864 8.500228881835938 167 135 96
0.87720787525177 -0.08642948418855667 7.535057067871094 162 135 91
-0.5971864461898804 0.4494123160839081 7.1760430335998535 84 62 32
0.6953538060188293 -0.17974483966827393 7.5301384925842285 81 54 22
-0.23848652839660645 0.3146412968635559 7.075131416320801 131 109 73
0.0014793326845392585 -0.23389796912670135 8.252058029174805 99 73 47
0.12703955173492432 -0.35023269057273865 7.833680629730225 144 115 82
-0.3851490616798401 -0.823231041431427 7.89829683303833 7 3 0
-0.6907845139503479 0.25700846314430237 7.694393634796143 130 104 65
0.15038007497787476 -0.3451688885688782 7.802273750305176 119 89 49
1.1863179206848145 0.08800768852233887 6.996213912963867 162 136 91
-0.4861229956150055 0.3554614186286926 7.099087238311768 151 129 93
0.4283587336540222 -0.45071089267730713 7.921448230743408 170 143 93
-0.14707490801811218 -0.22547689080238342 8.321348190307617 123 91 49
0.7336553931236267 0.41277065873146057 6.782783508300781 69 50 22
-0.42352554202079773 -0.429830938577652 7.984865188598633 173 139 87
1.0219132900238037 0.3575457036495209 6.799895286560059 163 139 89
0.8288202881813049 0.4005364179611206 6.700037002563477 58 45 22
-0.40423640608787537 0.34929531812667847 7.707496166229248 110 79 44
0.4242091774940491 -0.23317204415798187 8.166563987731934 149 113 76
-0.5441396832466125 0.521510124206543 7.230223178863525 108 87 53
0.7940492630004883 0.45720458030700684 6.804329872131348 129 110 76
-0.4889322817325592 -0.7334716320037842 7.99715518951416 215 180 133
0.8483967185020447 0.5285274386405945 6.758338928222656 37 25 5
0.11465092748403549 -0.49695366621017456 7.807044506072998 167 135 82
0.3905164897441864 -0.29244351387023926 7.700613975524902 173 145 102
1.1096374988555908 -0.10398205369710922 6.764210224151611 161 137 79
-0.5625284314155579 0.238019660115242 7.583232402801514 91 65 31
0.34871697425842285 -0.3836931586265564 7.865214824676514 107 75 32
-0.4980277419090271 0.40418165922164917 7.3393683433532715 61 39 19
-0.12388184666633606 -0.37149080634117126 7.889443397521973 105 73 34
-0.5378414988517761 2.6922948360443115 5.788632392883301 50 48 43
1.136240005493164 -0.1788083016872406 7.536474704742432 162 132 81
0.5281209945678711 -0.33387285470962524 7.4778900146484375 139 113 72
-0.4957878291606903 0.5247598886489868 7.227225303649902 157 136 110
0.5948218703269958 -0.1420166939496994 7.80162239074707 150 121 79
0.2012888789176941 -0.25893163681030273 8.209357261657715 147 114 70
0.3727661669254303 -0.2793390154838562 8.16333293914795 76 51 26
0.34290847182273865 -0.32514458894729614 7.745529651641846 84 57 25
0.47393161058425903 -0.23821914196014404 7.701181411743164 96 73 33
-0.4911096692085266 0.34216076135635376 7.077171802520752 137 121 94
0.7678821682929993 -0.15822559595108032 7.975109577178955 164 139 106
-0.2513766288757324 -0.23259836435317993 8.326621055603027 181 150 103
-0.19276808202266693 -0.5315094590187073 8.056827545166016 167 132 80
0.3561687767505646 -0.24425390362739563 8.170853614807129 153 114 64
